72 70 69 68 67 67 66 65 64 64 63 63 63 63 62 63 63 64 64 64 64 64 64 64 64 64 64 64 64 64 64 64 65 65 65 65 65 65 65 65 65 65 65 65 65 65 64 65 65 65 65 65 65 66 66 66 66 66 66 66 66 66 66 66 66 66 66 66 65 65 65 65 65 65 65 65 66 66 66 66 66 66 66 66 66 66 66 67 67 67 67 67 67 67 67 67 67 68 68 68 68 68 68 69 69 69 69 69 70 70 70 70 70 71 71 71 71 70 70 70 70 70 70 70 70 70 71 71 71 71 71 70 69 68 67 67 66 66 65 65 65 65 65 65 65 64 64 64 64 63 63 63 63 63 63 63 63 62 62 62 62 62 62 62 62 62 62 62 62 62 62 62 62 62 62 62 62 62 62 63 63 63 63 63 63 63 63 63 63 63 64 64 64 64 64 64 64 64 64 64 64 65 65 65 65 66 66 66 67 67 67 67 68 68 68 68 68 69 69 69 69 69 70 70 70 70 70 70 70 70 70 70 69 68 67 66 65 64 64 63 62 60 57 57 56 56 56 55 55 55 54 54 54 53 53 52
73 72 71 70 69 68 67 65 64 64 63 63 62 62 61 62 63 63 64 64 63 63 63 64 64 64 64 64 64 64 64 64 65 65 65 65 65 65 65 65 65 65 65 65 64 64 64 64 65 65 65 65 65 65 65 66 66 66 66 66 66 66 66 66 66 66 65 65 65 65 65 65 65 65 65 65 66 66 66 66 66 66 67 67 67 67 67 67 67 67 67 67 67 67 67 67 67 68 68 68 68 68 68 69 69 69 69 70 70 70 66 65 66 71 71 71 71 70 70 70 70 70 70 70 70 71 71 71 71 71 71 70 69 68 67 66 66 66 65 65 65 65 65 65 65 65 65 64 64 63 63 63 63 63 63 63 62 62 62 62 62 62 62 62 62 62 62 62 62 62 62 62 62 62 62 62 62 62 62 63 63 63 63 63 63 63 63 63 63 64 64 64 64 64 64 64 64 64 64 64 65 65 65 65 65 66 66 66 67 67 67 67 68 68 68 68 68 69 69 69 69 69 70 70 70 70 70 70 70 70 70 69 68 67 66 65 64 64 64 63 62 60 57 57 56 56 55 55 55 54 54 53 53 53 52 52
73 72 71 70 69 68 67 66 64 64 63 63 63 62 62 62 63 63 63 63 63 63 63 63 64 64 64 64 64 64 64 64 64 65 65 65 65 65 65 65 65 65 65 65 64 64 64 64 64 65 65 65 65 65 65 65 65 65 65 65 65 65 65 65 65 65 65 65 65 65 65 65 65 65 65 66 66 66 67 67 67 67 67 67 67 67 67 67 67 67 67 67 67 67 67 67 68 68 68 68 68 68 68 69 69 69 70 70 65 65 65 65 66 71 71 71 71 71 70 70 70 70 70 70 71 71 71 71 71 71 71 70 69 68 67 67 67 66 65 65 65 65 65 65 65 65 65 64 64 64 63 63 63 63 63 63 63 62 62 62 62 62 62 62 62 62 62 62 62 62 62 62 62 62 62 62 62 62 62 62 63 63 63 63 63 63 63 63 63 64 64 64 64 64 64 64 64 64 64 65 65 65 65 65 66 66 66 66 67 67 67 67 68 68 68 68 68 69 69 69 69 69 70 70 70 70 70 70 70 70 70 70 69 68 67 66 65 64 64 63 62 60 57 57 56 56 55 55 54 54 54 53 53 53 52 52
73 73 72 71 70 69 68 66 65 64 63 63 63 63 62 62 63 63 63 63 63 63 63 63 63 64 64 64 64 64 64 64 64 64 65 65 65 65 65 65 65 65 65 65 64 64 64 64 64 65 65 65 65 65 65 65 65 65 65 65 65 65 65 65 65 65 65 65 65 65 65 65 65 65 65 66 66 67 67 67 67 67 68 67 67 67 67 67 67 67 67 67 67 67 67 67 68 68 68 68 68 68 69 69 69 70 70 65 65 65 65 65 65 71 71 71 71 71 71 71 71 71 70 71 71 71 71 71 71 71 71 70 69 68 67 67 67 66 66 65 65 65 65 65 65 65 65 64 64 64 64 63 63 63 63 63 63 62 62 62 62 62 62 62 62 62 62 62 62 62 62 62 62 62 62 62 62 62 62 62 62 63 63 63 63 63 63 63 63 64 64 64 64 64 64 64 64 65 65 65 65 65 65 65 66 66 66 67 67 67 67 67 68 68 68 68 68 69 69 69 69 69 70 70 70 70 70 70 70 70 70 70 69 68 67 66 65 64 64 63 62 60 57 57 56 56 55 55 54 54 53 53 53 52 52 52
74 73 72 71 70 69 68 66 65 64 63 63 63 63 63 63 62 62 62 62 62 62 62 63 63 63 64 64 64 64 64 64 64 64 65 65 65 65 65 65 65 65 65 65 64 64 64 64 64 64 65 65 65 65 65 65 65 65 65 65 65 65 65 65 65 65 64 65 65 65 65 65 65 65 65 66 66 67 67 68 68 68 68 68 67 67 67 67 67 67 67 67 67 67 67 68 68 68 68 68 68 69 69 69 69 70 70 65 65 65 65 65 70 71 71 71 71 71 71 71 71 71 71 71 71 71 71 71 71 71 71 70 69 68 67 67 67 66 66 66 65 65 65 65 65 65 65 65 64 64 64 64 63 63 63 63 63 62 62 62 62 62 62 62 62 62 62 62 62 62 62 62 62 62 62 62 62 62 62 62 62 62 62 62 62 62 62 63 63 64 64 64 64 64 64 64 65 65 65 65 65 65 65 66 66 66 66 67 67 67 67 68 68 68 68 68 68 69 69 69 69 69 70 70 70 70 70 70 70 70 70 70 69 69 68 67 65 64 64 63 62 60 57 56 56 56 55 55 54 54 53 53 53 52 52 52
74 73 73 71 70 69 69 67 65 64 63 63 63 63 63 63 62 62 62 62 62 62 62 63 63 63 64 64 64 64 64 64 64 64 64 65 65 65 65 65 65 65 65 65 64 64 64 64 64 64 64 64 64 64 64 64 64 64 64 64 64 64 64 64 64 64 64 64 64 64 65 65 65 65 65 66 67 67 68 68 68 68 68 68 68 67 67 67 67 67 67 67 67 67 67 68 68 68 68 68 69 69 69 69 70 70 70 65 65 65 70 70 71 71 71 71 71 71 71 71 71 71 71 71 71 71 71 71 71 71 71 70 69 68 67 67 67 66 66 66 66 65 65 65 65 65 65 65 65 65 64 64 64 63 63 63 63 62 62 62 62 62 62 62 62 62 62 62 62 62 62 62 62 62 62 62 62 62 62 62 62 62 62 62 62 62 62 63 63 64 64 64 64 64 64 65 65 65 65 65 65 65 66 66 66 66 67 67 67 67 67 68 68 68 68 68 68 69 69 69 69 69 70 70 70 70 70 70 71 71 71 70 70 69 69 67 65 64 64 63 62 60 57 56 56 56 55 55 54 54 53 53 52 52 52 52
74 74 73 72 71 70 69 67 66 64 64 64 63 63 63 63 62 62 61 62 62 62 62 62 63 63 63 63 63 64 64 64 64 64 64 65 65 65 65 65 65 65 65 65 64 64 64 64 64 64 64 64 64 64 64 64 64 64 64 64 64 64 64 64 64 64 64 64 64 64 65 65 65 65 65 66 67 67 68 68 68 68 68 68 68 68 68 68 68 67 67 67 67 67 68 68 68 68 68 69 69 69 69 70 70 70 70 70 70 70 70 71 71 71 71 71 71 71 71 71 71 71 71 71 71 71 71 71 71 71 71 70 69 69 68 67 67 66 66 66 66 66 66 66 65 65 65 65 65 65 65 64 64 64 63 63 63 63 63 62 62 62 62 62 62 62 62 62 62 62 62 62 62 62 62 62 62 62 62 62 62 62 62 62 62 62 62 63 63 64 64 64 64 64 65 65 65 65 65 65 65 66 66 66 66 66 67 67 67 67 68 68 68 68 68 68 68 69 69 69 69 69 70 70 70 70 70 70 70 71 71 70 70 69 69 67 66 65 64 63 62 61 58 57 57 56 55 55 55 54 53 53 53 52 52 52
75 74 73 72 71 71 70 68 66 65 64 64 63 63 63 62 62 62 61 61 62 62 62 62 62 63 63 63 63 63 63 64 64 64 64 64 65 65 65 65 65 65 65 65 65 64 64 64 64 64 64 64 64 64 64 64 64 64 64 64 64 64 64 64 64 64 64 64 64 64 64 65 65 65 65 66 67 68 68 68 68 68 69 69 68 68 68 68 68 68 67 68 68 68 68 68 68 68 68 69 69 69 70 70 70 70 70 70 70 70 71 71 71 71 71 71 71 71 71 71 71 71 71 71 71 71 71 71 71 71 71 70 69 69 68 67 67 67 66 66 66 66 66 66 66 66 65 65 65 65 65 65 64 64 64 63 63 63 63 63 62 62 62 62 62 62 62 62 62 62 62 62 62 62 62 62 62 62 62 62 62 62 62 62 62 62 62 63 63 64 64 64 64 64 65 65 65 65 65 65 65 66 66 66 66 67 67 67 67 67 68 68 68 68 68 68 69 69 69 69 69 69 69 70 70 70 70 70 70 70 71 70 70 69 69 68 66 65 64 64 63 61 59 58 57 56 56 55 55 54 53 53 53 52 52 52
75 74 74 73 72 71 70 68 66 65 64 64 63 63 62 62 62 61 61 61 61 61 62 62 62 62 63 63 63 63 63 63 64 64 64 64 65 65 65 65 65 65 65 65 65 65 64 64 64 64 64 64 64 64 64 64 64 64 64 64 64 64 64 64 64 64 64 64 64 64 64 65 65 65 66 66 67 68 68 68 68 69 69 69 69 69 69 68 68 68 68 68 68 68 68 68 68 68 69 69 69 70 70 70 70 70 71 71 71 71 71 71 71 71 71 71 71 71 71 71 71 71 71 71 71 71 71 71 71 71 71 70 69 69 68 67 67 67 66 66 67 67 67 67 66 66 65 65 65 65 65 65 65 64 64 64 64 63 63 63 62 62 62 62 62 62 62 62 62 62 62 62 62 62 62 62 62 62 62 62 62 62 62 62 62 62 62 63 63 64 64 64 64 64 65 65 65 65 65 65 66 66 66 66 67 67 67 67 67 68 68 68 68 68 68 68 69 69 69 69 69 69 69 70 70 70 70 70 70 70 71 70 70 69 69 68 66 65 64 64 63 62 60 59 58 57 56 55 55 54 53 53 53 53 52 52
75 75 74 73 72 72 71 69 67 65 64 64 63 63 62 62 61 61 61 61 61 61 61 62 62 62 62 62 63 63 63 63 64 64 64 64 64 65 65 65 65 65 65 65 65 65 64 64 64 64 64 64 64 64 64 64 64 64 64 64 64 64 64 64 64 64 64 64 64 64 64 65 65 65 66 66 67 68 68 68 69 69 69 69 69 69 69 69 68 68 68 68 68 68 68 68 68 69 69 69 70 70 70 70 70 71 71 71 71 71 71 71 71 71 71 71 71 71 71 71 71 71 71 71 71 71 71 71 71 71 71 70 69 69 68 68 67 67 66 67 67 67 67 67 67 66 66 66 66 66 65 65 65 65 65 64 64 64 63 63 63 62 62 62 62 62 62 62 62 61 61 61 62 62 62 62 62 62 62 62 62 62 62 62 62 62 62 63 63 63 64 64 64 64 65 65 65 65 65 66 66 66 66 66 67 67 67 67 68 68 68 68 68 68 68 69 69 69 69 69 69 69 69 70 70 70 70 70 70 70 71 70 70 70 69 68 67 66 64 64 63 63 61 60 59 57 56 56 55 49 49 53 53 53 53 53
76 75 74 73 73 72 71 69 67 66 65 64 63 62 61 61 61 60 60 60 60 61 61 61 61 61 62 62 62 63 63 63 63 64 64 64 64 65 65 65 65 65 65 65 65 65 64 64 64 64 64 64 64 64 64 64 64 64 64 64 64 64 64 64 64 64 64 64 64 64 64 65 65 65 66 66 67 68 68 69 69 69 69 69 69 69 69 69 69 68 68 68 68 69 69 69 69 69 69 70 70 70 70 70 71 71 71 71 71 71 71 71 71 71 71 71 71 71 71 71 71 71 71 71 71 71 71 71 71 71 71 70 69 69 68 68 67 67 67 67 68 68 68 68 68 67 67 67 66 66 66 65 65 65 65 64 64 64 64 63 63 62 62 62 62 62 62 62 62 61 61 61 62 62 62 62 62 62 62 62 62 62 62 62 62 62 62 63 63 64 64 64 64 64 65 65 65 65 65 66 66 66 66 66 67 67 67 67 68 68 68 68 68 68 68 69 69 69 69 69 69 69 69 70 70 70 70 70 70 70 71 70 70 70 69 68 67 66 64 64 63 63 61 60 59 57 56 56 55 49 49 53 53 53 53 53
76 75 75 74 73 72 72 70 68 67 66 64 63 62 60 60 60 60 59 60 60 60 60 60 61 61 61 61 62 62 63 63 63 63 64 64 64 64 65 65 65 65 65 65 65 65 64 64 64 64 64 64 64 64 64 64 64 64 64 64 64 64 64 64 64 64 64 64 64 64 64 65 65 65 66 66 67 68 68 69 69 69 69 69 69 69 69 69 69 69 69 69 69 69 69 69 69 69 70 70 70 70 70 71 71 71 71 71 71 71 71 71 71 71 71 71 71 71 71 71 71 71 71 71 71 71 71 71 71 71 71 70 69 69 68 68 67 67 67 68 68 69 69 69 69 68 68 68 67 66 66 66 65 65 65 64 64 64 64 63 63 62 62 62 62 62 62 62 61 61 61 61 61 62 62 62 62 62 62 62 62 62 62 62 62 62 62 63 63 64 64 64 64 65 65 65 65 65 65 66 66 66 66 66 67 67 67 67 68 68 68 68 68 68 69 69 69 69 69 69 69 69 70 70 70 70 70 70 70 70 71 70 70 70 69 68 67 66 65 64 64 63 62 60 59 57 56 56 55 55 54 53 53 53 53 53
76 76 75 74 73 73 72 70 68 67 66 64 63 61 60 59 59 59 59 59 59 59 59 59 60 60 60 61 62 62 63 63 63 63 64 64 64 64 65 65 65 65 65 65 65 65 64 64 64 64 64 64 64 64 64 64 64 64 64 64 64 64 64 64 64 64 64 64 64 64 64 65 65 65 66 66 67 68 68 69 69 69 69 69 69 69 70 69 69 69 69 69 69 69 70 70 70 70 70 70 70 70 71 71 71 71 71 71 71 71 71 71 71 71 71 71 71 71 71 71 71 71 71 71 71 71 71 71 71 71 71 70 69 69 68 68 68 67 67 68 69 69 70 70 69 69 69 68 68 67 66 66 65 65 65 65 64 64 64 63 63 62 62 62 62 62 62 62 61 61 61 61 61 61 61 62 62 62 62 62 62 62 62 62 62 62 62 63 63 64 64 65 65 65 65 65 65 65 65 66 66 66 66 66 67 67 67 67 68 68 68 68 68 68 69 69 69 69 69 69 69 69 70 70 70 70 70 70 70 71 71 70 70 70 69 68 67 66 65 64 64 63 62 61 59 58 56 56 55 55 54 54 53 53 53 53
77 76 76 75 74 73 72 70 69 68 67 64 63 61 59 59 59 58 58 58 58 58 58 59 59 59 60 60 61 62 62 63 63 63 63 64 64 64 65 65 65 65 65 65 65 65 64 64 64 64 64 64 64 64 64 64 64 64 64 64 64 64 64 64 64 64 64 64 64 64 64 65 65 65 66 67 67 68 68 69 69 69 69 69 70 70 70 70 70 70 69 70 70 70 70 70 70 70 70 70 70 71 71 71 71 71 71 71 71 71 71 71 71 71 71 71 71 71 71 71 71 70 70 70 70 70 70 70 71 71 71 70 69 69 68 68 68 68 68 69 69 70 71 70 70 70 70 69 68 67 66 66 66 65 65 65 64 64 64 63 63 62 62 62 62 62 62 61 61 61 61 61 61 61 61 61 62 62 62 62 62 62 62 62 62 62 62 63 63 64 65 65 65 65 65 65 65 65 66 66 66 66 66 66 67 67 67 67 68 68 68 68 68 68 69 69 69 69 69 69 69 70 70 70 70 70 70 70 70 71 71 70 70 70 70 68 67 66 65 64 64 63 62 61 59 58 56 56 55 55 54 54 53 53 53 53
77 77 76 75 74 73 73 70 68 67 65 64 62 61 60 59 59 59 58 58 58 58 58 58 59 59 59 60 61 61 62 62 63 63 63 64 64 64 65 65 65 65 65 65 65 64 64 64 64 64 64 64 64 64 64 64 64 64 64 64 64 64 64 64 64 64 64 64 64 64 64 65 65 65 66 67 67 68 69 69 69 69 69 69 70 70 70 70 70 70 70 70 70 70 70 70 70 70 70 70 71 71 71 71 71 71 71 71 71 71 71 71 71 71 71 71 71 71 71 70 70 70 70 70 70 70 70 70 70 70 71 70 69 69 68 68 68 68 68 69 70 70 70 70 70 70 70 69 69 68 67 67 66 66 65 65 64 64 64 63 63 63 62 62 62 62 62 61 61 61 61 61 61 61 61 61 62 62 62 62 62 62 62 62 62 62 63 63 64 64 65 65 65 65 65 65 65 65 65 66 66 66 66 66 67 67 67 67 68 68 68 68 68 69 69 69 69 69 69 69 69 70 70 70 70 70 70 70 70 71 71 70 70 70 70 68 67 66 65 64 64 63 62 61 59 58 56 56 56 55 54 54 53 53 53 53
77 77 77 75 74 73 73 70 68 65 64 63 62 61 60 60 59 59 58 58 58 58 58 58 58 59 59 60 60 61 61 62 62 63 63 63 64 64 64 64 65 65 65 65 65 64 64 64 64 64 64 64 64 64 64 64 64 64 64 64 64 64 64 64 64 64 64 64 64 64 64 65 65 65 66 67 67 68 69 69 69 69 69 69 70 70 70 70 70 70 70 70 70 70 70 70 70 70 70 70 71 71 71 71 71 71 71 71 71 71 71 71 71 71 70 70 70 70 70 70 70 70 70 70 70 70 70 70 70 70 70 70 69 69 68 69 69 69 69 69 70 70 70 70 70 70 70 70 69 69 68 67 67 66 65 65 65 64 64 64 63 63 63 62 62 62 62 61 61 61 61 61 61 61 61 61 62 62 62 62 62 62 62 62 62 63 63 63 64 64 65 65 65 65 65 65 65 65 65 66 66 66 66 66 67 67 67 67 68 68 68 68 68 69 69 69 69 69 69 69 69 70 70 70 70 70 70 70 70 71 71 70 70 70 70 68 67 66 65 64 64 63 62 61 59 58 56 56 56 55 54 54 54 53 53 53
78 77 77 76 75 74 73 70 67 64 63 62 62 61 61 60 60 59 58 58 58 58 58 58 58 58 59 59 60 60 61 61 62 63 63 63 64 64 64 64 65 65 65 65 65 64 64 64 64 64 64 64 64 64 64 64 64 64 64 64 64 64 64 64 64 64 64 64 64 64 64 65 65 65 66 67 67 68 69 69 69 69 69 69 70 70 70 70 70 70 70 70 70 70 70 70 70 70 70 71 71 71 71 71 71 71 71 71 71 71 71 71 71 70 70 70 70 70 70 70 70 70 70 70 70 70 70 70 70 70 70 70 70 69 69 69 69 69 69 70 70 70 70 70 70 70 70 70 70 69 69 68 67 66 65 65 65 64 64 64 63 63 63 62 62 62 61 61 61 61 61 61 61 61 61 61 62 62 62 62 62 62 62 62 63 63 63 64 64 64 65 65 65 65 65 65 65 65 65 65 66 66 66 66 67 67 67 67 68 68 68 68 68 69 69 69 69 69 69 69 69 70 70 70 70 70 70 70 70 71 71 70 70 70 70 68 67 66 65 64 64 63 62 61 59 58 56 56 56 55 54 54 54 54 53 53
78 78 78 76 75 74 73 70 66 63 62 62 62 62 62 61 60 59 59 58 58 58 58 58 58 58 58 59 59 60 60 61 62 62 63 63 64 64 64 64 64 65 65 65 64 64 64 64 64 64 64 64 64 64 64 64 64 64 64 64 64 64 64 64 64 64 64 64 64 64 65 65 65 66 66 67 67 68 69 69 69 69 69 70 70 70 70 70 70 70 70 70 70 70 70 70 70 70 70 71 71 71 71 71 71 71 71 71 71 71 71 71 70 70 70 70 70 70 70 70 70 70 70 70 70 70 70 70 70 70 70 70 70 69 69 69 69 70 70 70 70 70 70 70 70 70 70 70 70 70 70 69 68 67 65 65 65 64 64 64 64 63 63 63 62 62 61 61 61 61 61 61 61 61 61 61 62 62 62 62 62 62 62 62 63 63 64 64 64 64 65 65 65 65 65 65 65 65 65 65 66 66 66 66 67 67 67 67 68 68 68 68 68 69 69 69 69 69 69 69 69 69 70 70 70 70 70 70 70 70 71 70 70 70 70 68 67 66 65 64 64 63 62 61 59 58 56 56 56 55 54 54 54 54 53 53
78 78 78 77 76 75 74 70 66 64 62 62 62 62 62 61 61 60 59 59 59 58 58 58 58 58 58 59 59 59 60 61 61 62 63 63 63 64 64 64 64 64 65 65 64 64 64 64 64 64 64 64 64 64 64 64 64 64 64 64 64 64 64 64 64 64 64 64 64 64 65 65 65 66 66 67 67 68 69 69 69 69 69 70 70 70 70 70 70 70 70 70 70 70 70 70 70 71 71 71 71 71 71 71 71 71 71 71 71 71 71 71 70 70 70 70 70 70 70 70 70 70 70 70 70 70 70 70 70 70 70 70 70 69 69 69 70 70 70 70 70 70 70 70 70 70 70 70 70 70 70 69 68 67 66 66 66 65 65 64 64 63 63 63 62 62 62 61 61 61 61 61 61 61 61 61 62 62 62 62 62 62 62 62 63 63 64 64 64 64 65 65 65 65 65 65 65 65 65 65 66 66 66 66 66 67 67 67 68 68 68 68 68 69 69 69 69 69 69 69 69 70 70 70 70 70 70 70 70 70 70 70 70 69 69 68 67 65 64 64 63 62 61 60 59 57 56 56 56 55 54 54 54 54 54 53
78 78 78 77 77 76 75 71 67 64 63 62 62 62 62 61 61 60 60 60 59 58 58 58 58 58 58 58 59 59 60 60 61 62 63 63 63 64 64 64 64 64 65 64 64 64 64 64 64 64 64 64 64 64 64 64 64 64 64 64 64 64 64 64 64 64 64 64 64 64 65 65 65 66 66 67 67 68 69 69 69 69 69 70 70 70 70 70 70 70 70 70 70 70 70 70 71 71 71 71 71 71 71 71 71 71 71 71 71 71 71 70 70 70 70 70 70 70 70 70 70 70 70 70 70 70 70 70 70 70 70 70 70 70 69 69 70 70 70 70 70 70 70 70 70 70 70 70 70 70 70 69 69 68 67 67 66 66 66 65 64 64 63 63 62 62 62 62 61 61 61 61 61 61 61 61 62 62 62 62 62 62 62 62 63 64 64 64 64 65 65 65 65 65 65 65 65 65 65 65 65 66 66 66 66 67 67 67 68 68 68 68 68 69 69 69 69 69 69 69 69 70 70 70 70 70 70 70 70 70 70 70 69 69 68 67 66 65 64 64 63 62 60 59 58 57 56 56 55 55 54 54 54 54 54 54
78 78 78 78 77 77 77 71 67 64 63 63 62 62 62 62 61 61 61 60 59 59 58 58 58 58 58 58 59 59 59 60 61 62 63 63 63 63 64 64 64 64 64 64 64 64 64 64 64 64 64 64 64 64 64 64 64 64 64 64 64 64 64 64 64 64 64 64 64 64 65 65 65 66 66 67 67 68 69 69 69 69 69 70 70 70 70 70 70 70 70 70 70 70 70 70 71 71 71 71 71 71 71 71 71 71 71 71 71 71 70 70 70 70 70 70 70 70 70 70 70 70 70 70 70 70 70 70 70 70 70 70 70 70 70 70 70 70 70 70 70 70 70 70 70 70 70 70 70 70 70 70 69 69 68 68 67 67 66 65 64 64 63 63 62 62 62 62 61 61 61 61 61 61 61 61 61 62 62 62 62 62 62 63 63 64 64 64 65 65 65 65 65 65 65 65 65 65 65 65 65 66 66 66 66 67 67 67 68 68 68 68 68 69 69 69 69 69 69 69 69 70 70 70 70 70 70 70 70 70 70 70 69 68 68 66 65 64 64 63 63 61 59 58 57 56 56 56 55 55 54 54 54 54 54 54
78 78 78 78 78 78 78 72 68 64 63 63 63 62 62 62 62 61 61 61 60 59 58 58 58 58 58 58 58 59 59 60 61 62 62 63 63 63 63 64 64 64 64 64 64 64 64 64 64 64 64 64 64 64 64 64 64 64 64 64 64 64 64 64 64 64 64 64 64 65 65 65 65 66 66 67 67 68 69 69 69 69 69 70 70 70 70 70 70 70 70 70 70 71 71 71 71 71 71 71 71 71 71 71 71 71 71 71 71 71 70 70 70 70 70 70 70 70 70 70 70 70 70 70 70 70 70 70 70 70 70 70 70 70 70 70 70 70 70 70 70 70 70 70 70 70 70 70 70 70 70 70 70 70 69 69 68 68 67 66 65 64 63 63 62 62 62 62 62 61 61 61 61 61 61 61 61 62 62 62 62 62 62 63 63 64 65 65 65 65 65 65 65 65 65 65 65 65 65 65 65 66 66 66 66 67 67 67 68 68 68 68 68 69 69 69 69 69 69 69 69 70 70 70 70 70 70 70 70 70 70 70 69 68 67 66 65 64 64 63 62 61 58 57 57 56 56 55 55 55 54 54 54 54 54 54
78 78 79 79 78 78 78 73 69 65 63 63 63 63 62 62 62 62 61 61 60 60 59 59 58 58 58 58 58 59 59 60 61 62 63 63 63 63 64 64 64 64 64 64 64 64 64 64 64 64 64 64 64 64 64 64 64 64 64 64 64 64 64 64 64 64 64 65 65 65 65 66 66 66 66 67 68 68 69 69 69 69 70 70 70 70 70 70 70 70 70 70 70 70 71 71 71 71 71 71 71 71 71 71 71 71 71 71 71 70 70 70 70 70 70 70 70 70 70 70 70 70 70 70 70 70 70 70 70 70 70 70 70 70 70 70 70 70 70 70 70 70 70 70 70 70 70 70 70 70 70 70 70 70 70 69 68 67 67 66 64 64 63 63 62 62 62 62 62 62 62 62 62 62 62 62 62 62 62 62 62 62 63 63 64 64 65 65 65 65 65 65 65 65 65 65 65 65 65 65 65 66 66 66 67 67 67 67 68 68 68 68 68 69 69 69 69 69 69 70 70 70 70 70 70 70 71 71 70 70 70 70 69 68 67 66 65 64 64 63 62 60 58 57 56 56 56 55 55 55 54 54 54 54 54 54
78 79 79 79 79 79 79 74 70 66 64 63 63 63 63 62 62 62 62 61 61 60 60 59 59 58 58 58 58 59 59 60 61 62 63 63 63 64 64 64 64 64 64 64 64 64 64 64 64 64 64 64 64 64 64 64 64 65 66 66 65 65 65 65 65 65 65 65 65 66 66 66 66 66 67 67 68 68 69 69 69 69 70 70 70 70 70 70 70 70 70 70 70 70 71 71 71 71 71 71 71 71 71 71 71 71 71 71 70 70 70 70 70 70 70 70 70 70 70 70 70 70 70 70 70 70 70 70 70 70 70 70 70 70 70 70 70 70 70 70 70 70 70 70 70 70 70 70 70 70 70 70 70 70 70 69 68 67 66 65 64 64 63 63 62 62 62 62 62 62 62 62 62 62 62 62 62 62 63 63 63 63 63 64 64 64 65 65 65 65 65 65 65 65 65 65 65 65 65 65 66 66 66 66 67 67 67 68 68 68 68 68 69 69 69 69 69 69 69 70 70 70 70 71 71 71 71 71 71 70 70 70 69 68 66 65 64 64 64 63 62 60 57 57 56 56 55 55 55 55 54 54 54 54 54 54
79 79 79 79 79 79 79 74 70 67 64 64 63 63 63 63 63 62 62 62 61 61 61 60 59 59 58 58 58 59 59 60 61 62 63 63 63 64 64 64 64 64 64 64 64 64 64 64 64 64 64 64 64 64 64 64 65 66 66 66 67 66 66 66 66 66 66 66 66 66 66 66 67 67 67 68 68 69 69 69 69 69 70 70 70 70 70 70 70 70 70 70 70 70 71 71 71 71 71 71 71 71 71 71 71 71 71 71 70 70 70 70 70 70 70 70 70 70 70 70 70 70 70 70 70 70 70 70 70 70 70 70 70 70 70 70 70 70 70 70 70 70 70 70 70 70 70 70 70 70 70 70 70 70 70 69 68 67 66 65 64 64 63 63 63 62 62 62 62 62 62 62 62 62 62 63 63 63 63 63 64 64 64 64 64 65 65 65 65 65 65 65 65 65 65 65 65 65 65 65 66 66 66 67 67 67 67 68 68 68 68 68 69 69 69 69 69 69 69 70 70 70 71 71 71 71 71 71 71 71 70 70 69 68 66 65 64 64 64 63 62 60 57 57 56 56 55 55 55 54 54 54 54 54 54 54
79 79 79 79 79 79 79 75 71 67 64 64 64 64 63 63 63 63 62 62 62 62 61 61 60 59 58 58 58 59 59 60 61 62 63 63 64 64 64 64 64 64 64 64 64 64 64 64 64 64 64 64 64 64 64 65 66 67 68 68 68 68 67 67 67 67 67 67 67 67 67 67 67 67 67 68 68 69 69 69 69 70 70 70 70 70 70 70 70 70 70 70 70 70 70 70 70 70 70 70 70 70 70 70 70 70 71 70 70 70 70 70 70 70 70 70 70 70 70 70 70 70 70 70 70 70 70 70 70 70 70 70 70 70 70 70 70 70 70 70 70 70 70 70 70 70 70 70 70 70 70 70 70 70 70 69 68 67 65 64 64 63 63 63 63 62 62 62 62 62 62 62 63 63 63 63 63 64 64 64 64 65 65 65 65 65 65 65 65 65 65 65 65 65 65 65 65 65 65 66 66 66 66 67 67 67 67 68 68 68 68 68 69 69 69 69 69 69 69 70 70 71 71 71 71 71 71 71 71 71 70 70 69 67 66 65 64 64 63 63 61 60 57 56 56 56 55 55 55 54 54 54 54 54 54 54
79 79 79 79 79 79 79 77 72 70 67 66 65 64 64 63 63 63 62 62 62 62 62 61 60 59 59 59 59 59 59 60 60 61 62 63 63 64 64 64 64 64 64 64 64 65 65 65 65 65 66 66 66 66 66 66 67 68 69 69 68 68 68 68 68 67 67 67 67 67 67 67 68 68 68 68 69 69 69 69 69 70 70 70 70 70 70 70 70 70 70 70 70 70 70 70 70 71 71 71 70 70 70 70 70 70 70 70 70 70 70 70 70 70 70 70 70 70 70 70 70 70 70 70 70 70 70 70 70 70 70 70 70 70 70 70 70 70 70 70 70 70 70 70 70 70 70 70 70 70 70 70 70 70 70 69 68 67 66 65 64 64 63 63 63 63 63 63 63 63 63 63 63 63 63 64 64 64 64 64 64 65 65 65 65 65 65 65 65 65 65 65 65 65 65 66 66 66 66 66 66 66 66 67 67 67 68 68 68 68 68 69 69 69 69 69 69 69 70 70 70 71 71 71 71 71 72 71 71 71 71 70 69 68 66 65 64 64 63 63 61 60 57 57 56 56 55 55 55 54 54 54 54 54 54 54
79 79 79 79 79 79 79 78 76 72 70 69 67 65 64 64 63 63 63 62 62 62 62 61 61 60 59 59 59 59 59 60 60 61 61 62 63 63 64 64 64 65 65 66 66 67 67 67 67 67 67 67 67 67 67 68 68 69 69 69 69 68 68 68 68 68 68 68 68 68 68 68 68 68 69 69 69 69 70 70 70 70 70 70 70 70 70 70 70 70 70 70 70 70 70 71 71 71 71 71 71 71 71 70 70 70 70 70 70 70 70 70 70 70 70 70 70 70 70 70 70 70 70 70 70 70 70 70 70 70 70 70 70 70 70 70 70 70 70 70 70 70 70 70 70 70 70 70 70 70 70 70 70 70 70 69 68 68 67 66 65 64 64 64 64 64 63 63 64 64 64 64 64 64 64 64 64 64 64 64 64 65 65 65 65 65 65 65 65 65 65 66 66 66 66 66 66 66 66 66 66 66 67 67 67 67 68 68 68 68 69 69 69 69 69 69 69 70 70 70 71 71 71 71 72 72 72 72 71 71 71 70 69 68 66 65 64 64 63 63 61 60 57 57 56 56 55 55 55 54 54 54 54 54 54 54
80 79 79 79 79 79 79 78 78 77 75 72 70 67 64 64 63 63 63 63 62 62 62 61 61 60 59 59 59 59 59 59 60 60 61 61 62 63 64 64 65 66 66 67 68 68 68 68 69 69 69 69 69 69 69 69 69 69 69 69 69 69 68 68 68 68 68 68 68 68 68 68 69 69 69 69 70 70 70 70 70 70 70 70 70 70 70 70 70 70 70 70 70 70 71 71 71 71 71 71 71 71 71 70 70 70 70 70 70 70 70 70 70 70 70 70 70 70 70 70 70 70 70 70 70 70 70 70 70 70 70 70 70 70 70 70 70 70 70 70 70 70 70 70 70 70 70 70 70 70 70 70 70 70 69 69 68 68 67 66 66 65 64 64 64 64 64 64 64 64 64 64 64 64 64 64 64 64 64 65 65 65 65 65 65 65 65 66 66 66 66 66 66 66 66 66 66 66 66 66 66 67 67 67 67 68 68 68 68 68 69 69 69 69 69 69 70 70 70 70 71 71 71 72 72 72 72 72 72 72 71 70 69 68 66 65 64 64 63 63 61 60 57 57 56 56 55 55 55 54 54 54 54 54 54 54
80 80 79 79 79 79 79 79 79 79 78 77 75 70 64 64 64 63 63 63 63 63 62 62 61 60 60 60 59 59 59 59 59 60 60 61 62 63 64 64 65 66 68 68 69 69 70 70 70 70 71 71 71 71 70 70 70 70 70 69 69 69 69 69 68 68 68 68 68 68 68 69 69 70 70 70 70 70 70 70 70 70 70 70 70 70 70 70 70 70 70 70 70 70 71 71 71 71 71 71 71 71 71 71 70 70 70 70 70 70 70 70 70 70 70 70 70 70 70 70 70 70 70 70 70 70 70 70 70 70 70 70 70 70 70 70 70 70 70 70 70 70 70 70 70 70 70 70 70 70 70 70 70 70 69 69 69 68 68 67 67 66 65 65 65 65 66 65 65 65 65 65 65 65 65 65 65 65 65 65 65 65 65 65 65 65 66 66 66 66 66 66 66 66 66 66 66 66 66 66 66 67 67 67 67 68 68 68 68 69 69 69 69 69 69 70 70 70 70 70 71 71 72 72 72 72 72 72 72 72 72 71 70 68 66 65 64 64 63 63 61 60 57 57 56 56 55 55 55 54 54 54 54 54 54 54
80 80 79 79 79 79 79 79 79 79 79 78 77 74 71 68 66 64 64 64 63 63 63 63 62 61 61 60 60 60 59 59 60 60 60 61 62 63 64 64 65 66 67 68 69 69 70 70 70 70 71 71 71 71 71 70 70 70 70 70 69 69 69 69 69 69 69 69 69 69 69 69 70 70 70 70 70 70 70 70 70 70 70 70 70 70 70 70 70 70 70 70 71 71 71 71 71 71 71 71 71 71 71 71 70 70 70 70 70 70 70 70 70 70 70 70 70 70 70 70 70 70 70 70 70 70 70 70 70 70 70 70 70 70 70 70 70 70 70 70 70 70 70 70 70 70 70 70 70 70 70 70 70 69 69 69 68 68 67 67 67 66 65 65 65 66 66 65 65 65 65 65 65 65 65 65 65 65 65 65 65 65 65 65 66 66 66 66 66 66 66 66 66 67 67 67 66 66 66 67 67 67 67 67 68 68 68 68 69 69 69 69 69 69 70 70 70 70 70 71 71 71 71 72 72 72 72 72 72 72 72 71 70 69 67 66 65 64 64 63 62 60 57 57 56 56 55 55 55 55 54 54 54 54 54 54
80 80 79 79 79 79 79 79 79 79 79 78 77 76 75 72 70 68 64 64 64 64 64 64 63 62 62 61 61 60 59 60 60 60 60 61 62 63 64 64 64 66 67 68 69 69 70 70 70 71 71 71 71 71 71 70 70 70 70 70 70 69 69 69 69 69 69 69 69 69 70 70 70 70 70 70 70 70 70 70 70 70 70 70 70 70 70 70 70 71 71 71 71 71 71 71 71 71 71 71 71 71 71 71 71 70 70 70 70 70 70 70 70 70 70 70 70 70 70 70 70 70 70 70 70 70 70 70 70 70 70 70 70 70 70 70 70 70 70 70 70 70 70 70 70 70 70 70 70 70 70 70 70 69 69 69 68 68 67 67 67 66 66 66 66 66 65 65 65 65 65 65 65 65 65 65 65 65 65 65 65 65 65 66 66 66 66 66 66 67 67 67 67 67 67 67 67 67 67 67 67 67 67 68 68 68 68 69 69 69 69 69 69 70 70 70 70 70 71 71 71 71 71 72 72 72 72 72 72 72 72 71 70 69 68 66 65 64 64 63 62 60 58 57 56 56 56 55 55 55 55 55 54 54 54 54
80 80 80 79 79 79 79 79 79 79 79 78 78 78 77 76 75 74 72 72 71 71 71 66 64 63 63 62 61 60 60 60 60 60 60 61 62 63 63 64 64 66 67 68 68 69 70 70 70 71 71 71 71 71 71 71 70 70 70 70 70 70 69 69 69 69 69 70 70 70 70 70 70 71 71 71 71 71 71 70 70 70 70 70 70 70 70 70 71 71 71 71 71 71 71 71 71 71 71 71 71 71 71 71 71 70 70 70 70 70 70 70 70 70 70 70 70 70 70 70 70 70 70 70 70 70 70 70 70 70 70 70 70 70 70 70 70 70 70 70 70 70 70 70 70 70 70 70 70 70 70 70 70 69 69 69 68 68 67 67 67 66 66 66 66 66 65 65 65 65 65 65 65 66 66 65 65 65 65 65 65 65 66 66 66 66 66 66 67 67 67 67 67 67 67 67 67 67 67 67 67 67 68 68 68 68 69 69 69 69 69 69 70 70 70 70 70 71 71 71 72 72 72 72 72 72 72 72 72 72 72 71 70 69 68 67 66 65 64 63 62 61 58 57 57 56 56 56 55 55 55 55 55 54 54 54
80 80 80 79 79 79 79 79 79 79 79 79 78 78 78 78 77 77 76 75 75 74 73 72 69 65 64 63 62 61 60 60 60 60 60 61 62 63 63 64 64 65 67 68 68 69 70 70 70 71 71 71 71 71 71 71 71 70 70 70 70 70 70 70 70 70 70 70 70 70 71 71 71 71 71 71 71 71 71 71 71 70 70 70 70 70 70 71 71 71 71 71 71 71 71 71 71 71 71 71 71 71 71 71 71 71 70 70 70 70 70 70 70 70 70 70 70 70 70 70 70 70 70 70 70 70 70 70 70 70 70 70 70 70 70 70 70 70 70 70 70 70 70 70 70 70 70 70 70 70 70 70 69 69 69 69 68 68 67 67 67 66 66 66 66 66 65 65 65 65 65 65 66 66 66 66 66 65 65 65 66 66 66 66 66 66 67 67 67 67 67 67 67 67 67 67 67 67 67 67 67 68 68 68 68 68 69 69 69 69 69 70 70 70 70 70 71 71 71 71 72 72 72 72 72 72 72 72 72 72 72 71 71 70 68 67 66 65 64 64 63 61 58 58 57 56 56 56 56 55 55 55 55 55 54 54
80 80 79 79 79 79 79 79 79 79 79 78 78 78 78 77 77 77 76 75 75 74 73 72 70 67 64 63 63 62 61 61 61 61 61 61 62 63 63 64 64 65 67 68 68 69 70 70 70 71 71 71 71 71 71 71 71 71 70 70 70 70 70 70 70 70 70 70 70 71 71 71 71 71 71 71 71 71 71 71 71 71 71 71 71 70 70 71 71 71 71 71 71 71 71 71 71 71 71 71 71 71 71 71 71 71 70 70 70 70 70 70 70 70 70 70 70 70 70 70 70 70 70 70 70 70 70 70 70 70 70 70 70 70 70 70 70 70 70 70 70 70 70 70 70 70 70 70 70 70 69 69 69 69 69 68 68 68 67 67 67 66 66 66 66 66 66 66 66 66 66 66 66 66 66 66 66 66 66 66 66 66 66 66 66 66 67 67 67 67 67 67 67 68 68 68 67 67 67 68 68 68 68 68 68 69 69 69 69 69 70 70 70 70 70 71 71 71 71 72 72 72 72 72 72 72 72 72 72 72 72 72 71 70 69 68 67 66 64 64 63 62 61 60 59 58 56 56 56 56 56 56 55 55 55 55
80 80 79 79 79 79 79 79 79 79 79 78 78 78 78 77 77 76 76 75 75 74 73 72 71 69 66 64 63 63 62 62 62 61 61 62 62 63 63 64 64 65 67 68 68 69 70 70 71 71 71 71 71 71 71 71 71 71 71 70 70 70 70 70 70 70 70 71 71 71 71 71 71 71 71 71 71 71 71 71 71 71 71 71 71 71 70 71 71 71 71 71 71 71 71 71 71 71 71 71 71 71 71 71 71 71 71 70 70 70 70 70 70 70 70 70 70 70 70 70 70 70 70 70 70 70 70 70 70 70 69 69 69 69 69 70 70 70 70 70 70 70 70 70 70 70 70 69 69 69 69 69 69 69 68 68 68 67 67 67 67 66 66 66 66 66 66 66 66 66 66 66 66 66 66 66 66 66 66 66 66 66 66 66 66 67 67 67 67 67 67 67 68 68 68 68 68 68 68 68 68 68 68 68 69 69 69 69 69 70 70 70 70 70 71 71 71 71 72 72 72 72 73 72 72 72 72 72 72 72 72 72 71 71 70 69 68 66 64 64 64 63 62 61 60 59 57 57 56 56 56 56 56 56 56 56
80 79 79 79 79 79 79 79 79 79 79 78 78 78 77 77 77 76 76 75 75 74 73 72 71 69 68 65 64 64 63 63 62 62 61 62 62 63 63 63 64 65 67 68 68 69 70 70 71 71 71 71 71 71 71 71 71 71 71 71 70 70 70 70 71 71 71 71 71 71 71 71 71 71 71 71 71 71 71 71 71 71 71 71 71 71 70 71 71 71 71 71 71 71 71 71 71 71 71 71 71 71 71 71 71 71 71 71 70 70 70 70 70 70 70 70 70 70 70 70 70 70 70 70 70 70 70 70 70 70 69 69 69 69 69 69 70 70 70 70 70 70 70 70 70 69 69 69 69 69 69 68 68 68 68 68 68 67 67 67 66 66 66 66 66 66 66 66 66 66 66 66 66 66 66 66 66 66 66 66 66 66 66 66 66 67 67 67 67 67 67 67 68 68 68 68 68 68 68 68 68 68 68 69 69 69 69 69 70 70 70 70 70 71 71 71 71 72 72 72 72 72 73 73 72 72 72 72 72 72 72 72 72 71 71 70 68 67 65 64 64 63 63 62 61 60 58 57 57 57 56 56 56 56 56 56
80 79 79 79 79 79 79 79 79 79 79 78 78 77 77 77 77 76 76 75 75 74 73 72 71 70 69 67 66 65 64 64 63 62 62 62 62 62 63 63 64 65 67 68 68 69 70 70 71 71 71 71 71 71 71 71 71 71 71 71 71 70 70 71 71 71 71 71 71 71 71 71 71 71 71 71 71 71 71 71 71 71 71 71 71 71 70 71 71 71 71 71 71 71 71 71 71 71 71 71 71 71 71 71 71 71 71 71 70 70 70 70 70 70 70 70 70 70 70 70 70 70 70 70 70 70 70 70 70 70 69 69 69 69 69 69 69 69 70 69 69 69 69 69 69 69 69 69 69 69 68 68 68 68 68 67 67 67 67 67 66 66 66 66 66 66 66 66 66 66 66 66 66 66 66 66 66 66 66 66 66 66 66 66 67 67 67 67 67 68 68 68 68 68 68 68 68 68 68 68 68 68 68 69 69 69 69 70 70 70 70 70 71 71 71 71 72 72 72 72 72 73 73 73 73 72 72 72 72 72 72 72 72 72 71 70 69 67 65 64 64 64 64 63 62 60 58 58 58 57 57 57 57 56 56 56
80 79 79 79 79 79 79 79 79 79 78 78 78 77 77 77 76 76 76 75 74 74 73 72 71 70 69 67 66 65 64 64 63 63 62 62 62 63 63 63 64 65 67 68 68 69 70 70 71 71 71 71 71 71 71 71 71 71 71 71 71 71 71 71 71 71 71 71 71 71 71 71 71 71 71 71 71 71 71 71 71 71 71 71 71 71 71 71 71 71 71 71 71 71 71 71 71 71 71 71 71 71 71 71 71 71 71 71 71 70 70 70 70 70 70 70 70 70 70 70 70 70 70 70 70 70 70 70 70 70 69 69 69 69 69 69 69 69 69 69 69 69 69 69 69 69 69 69 68 68 68 68 68 68 67 67 67 67 67 67 66 66 66 66 66 66 66 66 66 66 66 66 66 66 67 66 66 66 66 66 66 66 66 67 67 67 67 67 67 68 68 68 68 68 68 68 68 68 68 68 68 69 69 69 69 69 70 70 70 70 70 70 71 71 71 72 72 72 72 72 72 73 73 73 73 72 72 72 72 72 72 72 72 72 72 71 70 68 67 66 65 64 64 63 63 62 61 60 60 59 59 58 58 57 56 56
80 79 79 79 79 79 79 79 79 78 78 78 77 77 77 76 76 76 75 75 74 73 73 72 71 70 69 68 66 65 64 64 63 63 62 62 63 63 63 64 64 65 67 68 68 69 70 70 71 71 71 71 71 71 71 71 71 71 71 71 71 71 71 71 71 71 71 71 71 71 71 71 71 71 71 71 71 71 71 71 71 71 71 71 71 71 71 71 71 71 71 71 71 71 71 71 71 71 71 71 71 71 71 71 71 71 71 71 71 71 70 70 70 70 70 70 70 70 70 70 70 70 70 70 70 70 70 70 70 69 69 69 69 69 69 69 69 69 69 69 69 69 69 69 69 68 68 68 68 68 68 68 67 67 67 67 67 67 67 67 67 66 66 66 66 66 66 66 66 66 66 66 66 67 67 67 67 67 67 67 67 66 66 67 67 67 67 67 67 68 68 68 68 68 68 68 68 68 68 69 69 69 69 69 69 69 70 70 70 70 70 71 71 71 72 72 72 72 72 72 72 73 73 73 73 72 72 72 72 72 72 72 72 72 72 71 70 69 68 67 66 65 64 64 63 63 62 62 61 61 60 60 59 58 57 56
80 79 79 79 79 79 79 79 79 78 78 78 77 77 76 76 76 75 75 74 74 73 73 72 71 70 69 68 67 65 65 64 63 63 62 63 63 63 63 64 64 65 67 68 68 69 70 70 71 71 71 71 71 71 71 71 71 71 71 71 71 71 71 71 71 71 71 71 71 71 71 71 71 71 71 71 71 71 71 71 71 71 71 71 71 71 71 71 71 71 71 71 71 71 71 71 71 71 71 71 71 71 71 71 71 71 71 71 71 71 71 70 70 70 70 70 70 70 70 70 70 70 70 70 70 70 70 70 70 69 69 69 69 69 69 69 69 69 68 68 68 68 68 68 68 68 68 68 68 68 67 67 67 67 67 67 67 67 67 67 67 67 66 66 66 66 66 66 66 66 67 67 67 67 67 67 67 67 67 67 67 67 67 67 67 67 67 67 67 68 68 68 68 68 68 68 68 68 69 69 69 69 69 69 69 70 70 70 70 70 70 71 71 71 72 72 72 72 72 72 72 73 73 73 72 72 72 72 72 72 72 72 72 72 72 71 71 70 70 69 67 66 65 64 64 64 63 63 63 62 61 61 60 58 57 57
80 79 79 79 79 79 79 79 79 78 78 77 77 77 76 76 75 75 74 74 73 73 72 72 71 70 69 68 67 66 65 64 64 63 63 63 63 63 63 64 64 65 67 68 68 69 70 70 71 71 71 71 71 71 71 71 71 71 71 71 71 71 71 71 71 71 72 72 71 71 71 71 71 71 71 71 71 71 71 71 71 71 71 71 71 71 71 71 71 71 71 71 71 71 71 71 71 71 71 71 71 71 71 71 71 71 71 71 71 71 71 71 70 70 70 70 70 70 70 70 70 70 70 70 70 70 70 70 69 69 69 69 69 69 69 69 68 68 68 68 68 68 67 67 67 67 67 67 67 67 67 67 67 67 67 67 67 67 67 67 67 67 67 67 66 66 66 66 66 67 67 67 67 67 67 67 67 67 67 67 67 67 67 67 67 67 67 67 67 67 68 68 68 68 68 68 69 69 69 69 69 69 69 69 70 70 70 70 70 70 70 71 71 72 72 72 72 72 72 72 72 73 73 73 72 72 72 72 72 72 72 72 72 72 72 72 71 71 71 70 69 67 65 65 64 64 64 64 63 63 62 61 60 59 57 57
79 79 79 79 79 79 79 79 78 78 78 77 77 76 76 75 75 74 74 74 73 73 72 71 70 70 69 67 66 65 64 64 63 63 63 63 63 63 64 64 64 65 67 68 69 69 70 70 71 71 71 71 71 71 71 71 71 71 71 71 71 71 71 72 72 72 72 72 71 71 71 71 71 71 71 71 71 71 71 71 71 71 71 71 71 71 71 71 71 71 71 71 71 71 71 71 71 71 71 71 71 71 71 71 71 71 71 71 71 71 71 70 70 70 70 70 70 70 70 70 70 70 70 70 70 70 70 69 69 69 69 69 69 69 69 69 68 68 67 67 67 67 67 67 67 67 67 67 67 67 67 67 67 67 67 67 67 67 67 67 67 67 67 67 67 66 66 66 67 67 67 67 67 67 67 67 67 67 67 67 67 67 67 67 67 67 67 67 67 67 68 68 68 68 68 69 69 69 69 69 69 69 69 69 70 70 70 70 70 70 70 71 71 72 72 72 72 72 72 72 72 73 73 73 73 72 72 72 72 72 72 72 72 72 72 72 72 71 71 71 70 69 68 67 66 65 64 64 64 64 63 62 62 61 59 58
79 79 79 79 79 79 79 78 78 78 78 77 77 76 76 75 75 74 74 73 73 72 72 71 70 69 68 67 65 64 64 64 63 63 63 63 63 64 64 64 65 66 67 68 69 69 70 70 71 71 71 71 71 71 71 71 71 71 71 71 71 71 72 72 72 72 72 72 72 72 71 71 71 71 71 71 71 71 71 71 71 71 71 71 71 71 71 71 71 71 71 71 71 71 70 70 70 70 70 70 70 70 70 70 70 70 70 70 70 70 70 70 70 70 70 70 70 70 70 70 70 70 70 70 70 70 70 69 69 69 69 69 69 69 69 68 68 68 67 67 67 67 67 67 67 67 67 67 67 67 67 67 67 67 67 67 67 67 67 67 67 67 67 67 67 67 67 67 67 67 67 67 67 67 67 67 67 67 67 67 67 67 67 67 67 67 67 67 67 67 68 68 68 68 69 69 69 69 69 69 69 69 69 70 70 70 70 70 70 70 70 71 71 72 72 72 72 72 72 72 73 73 73 73 73 73 73 72 72 72 72 72 72 72 72 72 72 72 72 71 71 70 69 69 68 67 65 65 64 64 64 63 63 62 60 59
79 79 79 79 79 79 79 78 78 78 78 77 76 76 75 75 74 74 73 73 72 72 71 70 70 69 68 66 65 64 64 63 63 63 63 63 64 64 64 65 66 66 67 68 69 69 70 70 71 71 71 71 71 71 71 71 71 71 71 71 71 71 72 72 72 72 72 72 72 72 72 71 71 71 71 71 71 71 71 71 71 71 71 71 71 71 71 71 71 71 71 71 71 71 70 70 70 70 70 70 70 70 70 70 70 70 70 70 70 70 70 70 70 70 70 70 70 70 70 70 70 70 70 70 70 70 69 69 69 69 69 69 69 69 69 68 68 67 67 67 67 67 67 67 67 67 67 67 67 67 67 67 67 67 67 67 67 67 67 67 67 67 67 67 67 67 67 67 67 67 67 67 67 67 67 67 67 67 67 67 67 67 67 67 67 67 67 67 67 67 68 68 68 68 69 69 69 69 69 69 69 70 70 70 70 70 70 70 70 70 71 71 71 72 72 72 72 72 72 73 73 73 73 73 73 73 73 73 72 72 72 72 72 72 72 72 72 72 72 72 71 71 71 70 69 68 67 66 65 64 64 64 63 62 61 60
79 79 79 79 79 78 78 78 78 78 77 77 76 76 75 75 74 73 73 73 72 71 71 70 69 68 68 66 64 64 63 63 63 63 63 64 64 64 65 66 66 67 67 68 69 69 70 70 70 71 71 71 71 71 71 71 71 71 71 71 71 71 72 72 72 72 72 72 72 72 72 72 71 71 71 71 71 71 71 71 71 71 71 71 71 71 71 71 71 71 71 71 71 70 70 70 70 70 70 70 70 70 70 70 70 70 70 70 70 70 70 70 70 70 70 70 70 70 70 70 70 70 70 70 70 70 69 69 69 69 69 69 69 68 68 68 68 67 67 66 66 66 66 66 66 67 67 67 67 67 67 67 67 67 67 67 67 67 67 67 67 67 67 67 67 67 67 67 67 67 67 67 67 67 67 67 67 67 67 67 67 67 67 67 67 67 67 67 67 67 68 68 68 68 69 69 69 69 69 69 70 70 70 70 70 70 70 70 70 70 71 71 71 71 72 72 72 72 73 73 73 73 73 73 73 73 73 73 73 72 72 72 72 72 72 72 72 72 72 72 72 72 72 71 70 69 68 67 66 65 64 64 64 63 62 61
79 79 79 78 78 78 78 78 78 77 77 76 76 75 75 74 74 73 73 72 71 71 70 69 68 67 66 65 64 64 63 63 63 63 64 64 64 65 66 66 67 67 67 68 69 69 70 70 70 71 71 71 71 71 71 71 71 71 71 71 71 72 72 72 72 72 72 72 72 72 72 72 72 71 71 71 71 71 71 71 71 71 71 71 71 71 71 71 71 71 71 71 71 71 70 70 70 70 70 70 70 70 70 70 70 70 70 70 70 70 70 70 70 70 70 70 70 70 70 70 70 70 70 70 70 70 69 69 69 69 68 68 68 68 68 67 67 67 66 66 66 66 66 66 66 66 67 67 67 67 67 67 67 67 67 67 67 67 67 67 67 67 67 67 67 67 67 67 67 67 67 67 67 67 67 67 67 67 67 67 67 67 67 67 67 67 67 67 67 67 68 68 68 68 69 69 69 69 69 70 70 70 70 70 70 70 70 70 70 71 71 71 71 71 72 72 72 72 73 73 73 73 73 73 73 73 73 73 73 72 72 72 72 72 72 72 72 72 72 72 72 72 72 72 71 70 69 68 67 66 65 64 64 63 63 62
78 78 78 78 78 78 78 77 77 77 77 76 76 75 74 74 73 73 72 71 71 70 69 68 67 66 65 64 64 64 63 63 64 64 64 64 64 65 66 66 67 67 68 68 69 69 70 70 70 70 71 71 71 71 71 71 71 71 71 71 71 72 72 72 72 72 72 72 72 72 72 72 72 72 71 71 71 71 71 71 71 71 71 71 71 71 71 71 71 71 71 71 71 71 71 70 70 70 70 70 70 70 70 70 70 70 70 70 70 70 70 70 70 70 70 70 70 70 70 70 70 70 70 70 70 69 69 69 69 69 68 68 68 68 67 67 67 66 66 66 66 66 66 66 66 66 66 66 66 66 67 67 67 67 67 67 67 67 67 67 67 67 67 67 67 67 67 67 66 66 66 67 67 67 67 67 67 67 67 67 67 67 67 67 67 67 67 67 67 67 68 68 68 68 69 69 69 69 70 70 70 70 70 70 70 70 70 71 71 71 71 71 72 72 72 72 72 72 72 73 73 73 73 73 73 73 73 73 73 73 72 72 72 72 72 72 72 72 72 72 72 72 72 72 71 71 70 69 68 67 66 65 64 64 63 62
78 78 78 78 78 78 77 77 77 77 76 76 75 75 74 74 73 72 72 71 70 70 69 67 66 65 64 64 64 64 63 64 64 64 64 65 65 66 66 67 67 68 68 69 69 69 70 70 70 70 70 70 71 71 71 71 71 71 71 71 71 72 72 72 72 72 72 72 72 72 72 72 72 72 71 71 71 71 71 71 71 71 71 71 71 71 71 71 71 71 71 71 71 71 71 71 70 70 70 70 70 70 70 70 70 70 70 70 70 70 70 70 70 70 70 70 70 70 70 70 70 70 70 70 70 69 69 69 69 68 68 68 67 67 67 66 66 66 66 66 66 66 66 66 66 66 66 66 66 66 66 67 67 67 67 67 67 67 67 67 67 67 67 67 67 67 66 66 66 66 66 66 67 67 67 67 67 67 67 67 67 67 67 67 67 67 67 67 67 67 68 68 68 68 69 69 69 69 70 70 70 70 70 70 70 70 71 71 71 71 71 71 72 72 72 72 72 72 72 73 73 73 73 73 73 73 73 73 73 73 72 72 72 72 72 72 72 72 72 72 72 72 72 72 72 72 71 71 69 68 66 65 64 64 63 63
78 78 78 78 77 77 77 77 76 76 76 75 75 74 74 73 72 72 71 70 70 69 68 67 65 64 64 64 64 63 63 64 64 65 65 66 66 66 66 67 67 68 68 69 69 69 70 70 70 70 70 70 70 70 71 71 71 71 71 71 72 72 72 72 72 72 72 72 72 72 72 72 72 72 72 72 71 71 71 71 71 71 71 71 71 71 71 71 71 71 71 71 71 71 71 71 71 70 70 70 70 70 70 70 70 70 70 70 70 70 70 70 70 69 69 70 70 70 70 70 70 70 70 70 70 69 69 69 69 68 68 68 67 66 66 66 65 65 65 65 65 65 65 65 66 66 66 66 66 66 66 67 67 67 67 67 67 67 67 67 67 67 67 67 66 66 66 66 66 66 66 66 66 67 67 67 67 67 67 67 67 67 67 67 67 67 67 67 67 67 67 68 68 68 69 69 69 69 70 70 70 70 70 70 70 71 71 71 71 71 71 71 72 72 72 72 72 72 72 73 73 73 73 73 73 73 73 73 73 73 73 72 72 72 72 72 72 72 72 72 73 73 73 73 72 72 72 71 70 69 67 66 65 64 64 63
77 77 77 77 77 77 76 76 76 76 75 75 74 74 73 73 72 71 70 69 68 68 67 66 65 64 64 64 64 64 64 64 64 65 66 66 66 66 67 67 68 68 69 69 69 69 70 70 70 70 70 70 70 70 71 71 71 71 71 71 72 72 72 72 72 72 72 72 72 72 72 72 72 72 72 72 72 72 72 71 71 71 71 71 71 71 71 71 71 71 71 71 71 71 71 71 71 71 70 70 70 70 70 70 70 70 70 70 70 70 70 70 70 70 70 70 70 70 70 70 70 70 70 70 69 69 69 69 68 68 68 67 67 66 66 66 65 65 65 65 65 65 65 66 66 66 66 66 66 66 66 66 67 67 67 67 67 67 67 67 67 66 66 66 66 66 66 66 66 66 66 66 66 66 67 67 67 67 67 67 67 67 67 67 67 67 67 67 67 67 68 68 68 68 69 69 69 70 70 70 70 70 70 70 71 71 71 71 71 71 71 72 72 72 72 72 72 72 72 72 73 73 73 73 73 73 73 73 73 73 73 73 72 72 72 72 72 73 73 73 73 73 73 73 73 73 72 72 71 70 69 68 66 65 64 63
77 77 77 76 76 76 76 76 75 75 75 74 74 73 73 72 71 70 69 68 67 66 65 65 64 64 64 64 64 64 64 64 65 65 66 66 67 67 67 68 68 69 69 69 69 70 70 70 70 70 70 70 70 70 70 71 71 71 71 71 72 72 72 72 72 72 72 72 72 72 72 72 72 72 72 72 72 72 72 72 72 71 71 71 71 71 71 71 71 71 71 71 71 71 71 71 71 71 71 71 70 70 70 70 70 70 70 70 70 70 70 70 70 70 70 70 70 70 70 70 70 70 70 70 69 69 69 69 68 68 67 67 66 66 65 65 65 65 65 65 65 65 65 66 66 66 66 66 66 66 66 66 66 66 66 66 66 66 66 66 66 66 66 66 66 66 66 66 66 66 66 66 66 66 67 67 67 67 67 67 67 67 67 67 67 67 67 67 67 67 68 68 68 69 69 69 69 70 70 70 70 71 71 71 71 71 71 71 71 72 72 72 72 72 72 72 72 72 72 72 73 73 73 73 73 73 73 73 73 73 73 73 73 73 73 73 73 73 73 73 73 73 73 73 73 73 73 72 72 71 70 69 67 66 64 64
76 76 76 76 76 76 75 75 75 75 75 74 73 73 72 71 70 70 69 67 66 65 64 64 64 64 64 64 64 64 65 65 65 66 66 66 67 67 68 68 68 69 69 69 69 70 70 70 70 70 70 70 70 70 70 71 71 71 71 71 72 72 72 72 72 72 72 72 72 72 72 72 72 72 72 72 72 72 72 72 72 72 71 71 71 71 71 71 71 71 72 71 71 71 71 71 71 71 71 71 71 70 70 70 70 70 70 70 70 70 70 70 70 70 70 70 70 70 70 70 70 70 70 69 69 69 69 68 68 67 67 66 66 66 65 65 65 65 65 65 65 65 65 66 66 66 66 66 66 66 66 66 66 66 66 66 66 66 66 66 66 66 66 66 66 66 66 66 66 66 66 66 66 66 66 67 67 67 67 67 67 67 67 67 67 67 67 67 67 68 68 68 68 69 69 69 70 70 70 70 71 71 71 71 71 71 72 72 72 72 72 72 72 72 72 72 72 72 72 72 72 73 73 73 73 73 73 73 73 73 73 73 73 73 73 73 73 73 73 73 73 73 73 73 73 73 73 73 72 72 71 70 68 66 64 64
75 75 75 75 75 75 75 75 75 74 74 74 73 72 72 71 70 69 68 67 65 64 64 64 64 64 63 64 64 65 66 66 66 66 66 67 67 68 68 68 69 69 69 69 70 70 70 70 70 70 70 70 70 70 70 71 71 71 71 71 72 72 72 72 72 72 72 72 72 72 72 72 72 72 72 72 72 72 72 72 72 72 71 71 71 71 71 71 71 72 72 72 72 71 71 71 71 71 71 71 71 71 71 71 71 71 71 71 70 70 70 70 70 70 70 70 70 70 70 70 70 70 70 69 69 69 69 68 68 67 66 66 66 66 65 65 65 65 65 65 65 65 65 66 66 66 66 66 66 66 66 66 66 66 66 66 66 66 66 66 66 66 66 66 66 66 66 66 66 66 66 66 66 66 66 66 67 67 67 67 67 67 67 67 67 67 67 67 67 68 68 68 68 69 69 69 70 70 70 71 71 71 71 71 72 72 72 72 72 72 72 72 72 72 72 72 72 72 72 72 72 73 73 73 73 73 73 73 73 73 73 73 73 73 73 73 73 73 73 73 73 73 74 74 74 74 74 73 73 73 72 71 69 67 65 64
74 74 74 74 74 74 74 74 74 74 74 73 72 72 71 69 68 67 66 65 64 64 64 64 64 64 64 64 64 65 66 66 66 66 67 67 68 68 68 69 69 69 69 70 70 70 70 70 70 70 70 70 70 70 70 71 71 71 71 71 72 72 72 72 72 72 72 72 72 72 72 72 72 72 72 72 72 72 72 72 72 72 72 72 71 71 71 71 72 72 72 72 72 72 71 71 71 71 71 71 71 71 71 71 71 71 71 71 71 70 70 70 70 70 70 70 70 70 70 70 70 70 69 69 69 69 68 68 67 67 66 66 66 66 65 65 65 65 65 65 65 65 65 66 66 66 66 66 66 66 66 66 66 66 66 66 66 66 66 66 66 66 66 66 65 65 65 65 66 66 66 66 66 66 66 66 66 67 67 67 67 67 67 67 67 67 67 64 64 68 68 68 68 69 69 69 70 70 71 71 71 71 71 72 72 72 72 72 72 72 72 72 72 72 72 72 72 72 72 72 72 72 73 73 73 73 73 73 73 73 73 73 73 73 73 73 73 73 73 73 73 74 74 74 74 74 74 73 73 72 72 71 69 67 65 64
73 73 73 73 73 74 74 73 73 73 73 72 72 71 70 68 67 66 65 64 64 64 63 64 64 64 64 64 65 65 66 66 66 67 67 67 68 68 69 69 69 69 70 70 70 70 70 70 70 70 70 70 70 70 70 71 71 71 71 71 72 72 72 72 72 72 72 72 72 72 72 72 72 72 72 72 72 72 72 72 72 72 72 72 72 71 71 72 72 72 72 72 72 72 72 71 71 71 71 71 71 71 71 71 71 71 71 71 71 70 70 70 70 70 70 70 70 70 70 70 70 69 69 69 69 68 68 67 67 67 66 66 66 66 66 65 65 65 65 65 65 65 65 66 66 66 66 66 66 66 66 66 66 66 66 66 66 66 66 66 65 65 65 65 65 65 65 65 65 65 66 66 66 66 66 66 66 66 67 67 67 67 67 67 67 67 67 67 67 68 68 68 69 69 69 70 70 70 71 71 71 71 72 72 72 72 72 72 72 72 72 72 72 72 72 72 72 72 72 72 72 72 72 72 72 73 73 73 73 73 73 73 73 73 73 73 73 73 73 73 74 74 74 74 74 74 73 73 73 72 72 71 70 68 66 64
72 72 72 72 73 73 73 73 73 72 72 72 71 70 69 67 66 64 64 64 64 63 63 63 64 64 64 65 65 65 66 66 67 67 67 68 68 68 69 69 69 69 70 70 70 70 70 70 70 70 70 70 70 70 70 71 71 71 71 71 72 72 72 72 72 72 72 72 72 72 72 72 72 72 72 72 72 72 72 72 72 72 72 72 72 72 71 72 72 72 72 72 72 72 72 72 72 71 71 71 71 71 71 71 71 71 71 71 71 71 70 70 70 70 70 70 70 70 70 70 70 69 69 69 68 68 67 67 67 67 66 66 66 66 66 66 66 65 65 65 65 65 66 66 66 66 66 66 66 66 66 66 66 66 66 66 66 66 65 65 65 65 65 65 65 65 65 65 65 65 65 66 66 66 66 66 66 66 66 67 67 67 67 67 67 67 67 67 68 68 68 68 69 69 69 70 70 71 71 71 71 72 72 72 72 72 72 72 72 72 72 72 72 72 72 72 72 72 72 72 72 72 72 72 72 72 72 73 73 73 73 73 73 73 73 73 73 73 74 74 74 74 74 74 74 74 73 73 73 72 72 71 70 68 66 65
72 72 72 72 72 72 72 72 72 72 72 71 70 70 69 66 65 64 63 63 63 63 63 63 64 64 65 65 65 66 66 66 67 67 67 68 68 69 69 69 69 70 70 70 70 70 70 70 70 70 70 70 70 70 70 71 71 71 71 71 72 72 72 72 72 73 73 73 72 72 72 72 72 72 72 72 72 73 73 72 72 72 72 72 72 72 72 72 72 72 72 72 72 72 72 72 72 72 71 71 71 71 71 71 71 71 71 71 71 71 70 70 70 70 70 70 70 70 70 70 69 69 69 69 68 67 67 67 67 67 66 66 66 66 66 66 66 66 65 65 65 66 66 66 66 66 66 66 66 66 66 66 66 65 65 65 65 65 65 65 65 65 65 65 65 65 65 65 65 65 65 65 66 66 66 66 66 66 66 66 67 67 67 67 67 67 67 67 68 68 68 68 69 69 69 70 70 71 71 72 72 72 72 72 72 72 72 72 72 72 72 72 72 72 72 72 72 72 72 72 72 72 72 72 72 72 72 72 72 73 73 73 73 73 73 73 73 74 74 74 74 74 74 74 74 74 73 73 73 72 72 71 70 68 66 65
71 71 71 72 72 72 72 72 72 72 71 71 70 70 68 66 64 64 63 63 63 63 63 63 64 64 64 65 65 65 66 66 66 67 67 68 68 69 69 69 69 70 70 70 70 70 70 70 70 70 70 70 70 70 71 71 71 71 71 72 72 72 72 72 72 73 73 73 72 72 72 72 72 72 73 73 73 73 73 72 72 72 72 72 72 72 71 72 72 72 72 72 72 72 72 72 72 72 72 72 71 71 71 71 71 71 71 71 71 71 70 70 70 70 70 70 70 70 70 70 69 69 69 68 68 67 67 67 66 66 66 66 66 66 66 66 66 66 65 65 65 66 66 66 66 66 66 66 66 66 66 66 65 65 65 65 65 65 65 65 65 65 65 65 65 65 65 65 65 65 65 65 65 66 66 66 66 66 66 66 66 66 66 66 66 66 66 67 67 68 68 69 69 69 70 70 71 71 72 72 72 72 72 72 72 72 72 72 72 72 72 72 72 72 72 72 72 72 72 72 72 72 72 72 72 72 72 72 72 73 73 73 73 73 73 73 73 74 74 74 74 74 74 74 73 73 73 73 73 72 72 71 70 69 67 66
71 71 71 71 71 72 72 72 71 71 71 70 69 68 68 66 64 64 63 63 63 63 62 63 63 64 64 64 65 65 66 66 66 67 67 68 68 68 69 69 69 70 70 70 70 70 70 70 70 70 70 70 70 70 71 71 71 71 71 72 72 72 72 72 72 72 73 73 72 72 72 73 73 73 73 73 73 73 73 73 72 72 72 72 72 72 71 72 72 72 72 72 72 72 72 72 72 72 72 72 72 72 71 71 71 71 71 71 71 70 70 70 70 70 70 70 70 70 70 69 69 69 68 68 67 67 66 66 66 66 66 66 66 66 66 66 66 65 65 65 65 66 66 66 66 66 66 66 66 66 66 65 65 65 65 65 65 65 65 65 65 65 64 64 64 64 64 65 65 65 65 65 65 65 66 66 66 66 66 66 66 66 66 66 65 65 65 66 67 68 68 69 69 70 70 70 71 71 72 72 72 72 72 72 72 72 72 72 72 72 72 72 72 72 72 72 72 72 72 72 72 72 72 72 72 72 72 72 72 73 73 73 73 73 73 73 73 74 74 74 74 74 74 74 73 73 73 73 72 72 72 71 70 69 68 67
71 71 71 71 71 71 71 71 71 71 70 69 69 68 67 65 64 64 63 63 63 62 62 63 63 64 64 64 64 65 65 66 66 66 67 67 68 68 69 69 69 70 70 70 70 70 70 70 70 70 70 70 70 71 71 71 71 71 71 72 72 72 72 72 72 72 73 73 73 73 73 73 73 73 73 73 73 73 73 73 72 72 72 72 72 72 71 72 72 72 72 72 72 72 72 72 72 72 72 72 72 72 72 71 71 71 71 71 71 70 70 70 70 70 70 70 70 70 70 69 69 68 68 67 67 66 66 66 66 66 66 66 66 66 66 66 66 65 65 65 65 65 66 66 66 66 66 66 66 66 66 65 65 65 65 65 65 65 65 65 65 61 64 64 64 64 64 64 64 65 65 65 65 65 66 66 66 66 66 66 66 65 65 65 65 64 64 65 67 68 68 69 69 70 70 71 71 71 72 72 72 72 72 72 72 72 72 72 72 72 72 72 72 72 72 72 72 72 72 72 72 72 72 72 72 72 72 72 72 73 73 73 73 73 73 73 73 74 74 74 74 74 74 73 73 73 73 73 72 72 72 71 71 70 69 68
70 70 70 70 71 71 71 71 70 70 70 69 68 67 67 65 64 63 63 63 62 62 62 63 63 64 64 64 64 64 65 65 66 66 66 67 68 68 69 69 69 70 70 70 70 70 70 70 70 70 70 70 71 71 71 71 71 71 72 72 72 72 72 72 72 72 72 73 73 73 73 73 73 73 74 74 74 74 73 73 72 72 72 72 72 72 71 72 72 72 72 72 72 72 72 72 72 72 72 72 72 72 72 71 71 71 71 71 71 70 70 70 70 70 70 70 70 70 70 69 69 68 67 67 66 66 66 66 66 66 66 66 66 66 66 66 66 65 65 65 65 65 66 66 66 66 66 66 66 65 65 65 65 65 65 65 65 65 65 65 61 61 64 64 64 64 64 64 64 64 65 65 65 65 65 66 66 66 66 66 65 65 65 64 64 64 64 65 66 68 69 69 70 70 71 71 71 71 72 72 72 72 72 72 72 72 72 72 72 72 72 72 72 72 72 72 72 72 72 72 72 72 72 72 72 72 72 72 72 73 73 73 73 73 73 73 73 74 74 74 74 74 73 73 73 73 73 72 72 72 72 72 71 70 69 68
70 70 70 70 70 71 71 70 70 70 69 68 67 67 66 65 64 63 63 62 62 62 62 62 63 63 63 64 64 64 64 64 65 65 66 67 67 68 68 69 69 69 70 70 70 70 70 70 70 70 70 71 71 71 71 71 71 71 72 72 72 72 72 72 72 72 73 73 73 73 73 73 73 74 74 74 73 73 73 73 72 72 72 72 72 72 71 72 72 72 72 72 72 72 72 72 72 72 72 72 72 72 72 71 71 71 71 71 71 70 70 70 70 70 70 70 70 70 69 69 68 68 67 67 66 66 66 66 66 66 66 66 66 66 66 66 66 66 65 65 65 65 65 65 66 66 66 65 65 65 65 65 65 65 65 65 65 65 65 62 61 64 64 64 64 64 64 64 64 64 64 65 65 65 65 65 66 66 66 66 65 65 65 65 65 64 64 66 67 68 69 69 70 70 71 71 71 72 72 72 72 72 72 72 72 72 72 72 72 72 72 72 72 72 72 72 72 72 72 72 72 72 72 72 72 72 72 72 72 73 73 73 73 73 73 73 73 73 73 73 73 73 73 73 73 73 73 72 72 72 72 72 71 71 70 69
69 69 70 70 70 70 70 70 70 69 68 67 67 66 66 64 64 63 62 62 62 62 62 62 62 62 63 63 63 63 64 64 64 65 65 66 67 67 68 68 69 69 70 70 70 70 70 70 70 70 71 71 71 71 71 71 71 72 72 72 72 72 72 72 72 73 73 73 73 73 73 74 74 74 74 73 73 73 72 72 72 72 72 72 72 72 72 72 72 72 72 72 72 72 72 72 72 72 72 72 72 72 72 71 71 71 71 71 71 70 70 70 70 70 70 70 70 69 69 69 68 67 67 67 66 66 66 66 66 66 66 66 66 66 66 66 66 66 65 65 65 65 65 65 65 65 65 65 65 65 65 65 64 60 60 62 62 62 62 62 62 62 64 64 64 64 64 64 64 64 64 64 65 65 65 65 65 65 66 65 65 65 65 65 65 65 65 66 67 68 69 70 70 70 71 71 71 72 72 72 72 72 72 72 72 72 72 72 72 72 72 72 72 72 72 72 72 72 72 72 72 72 72 72 72 72 72 72 72 73 73 73 73 73 73 73 73 73 73 73 73 73 73 73 73 73 72 72 72 72 72 72 71 71 71 70
69 69 69 69 70 70 70 70 69 68 66 66 66 66 66 64 64 63 62 62 62 62 61 62 62 62 62 62 62 63 63 63 64 64 65 66 66 67 67 68 68 69 69 70 70 70 70 70 70 71 71 71 71 71 71 71 71 72 72 72 72 72 72 72 73 73 73 73 74 74 74 74 74 74 74 73 73 72 72 72 72 72 73 72 72 72 72 72 72 72 72 72 72 72 72 72 72 72 72 72 72 72 72 71 71 71 71 71 71 71 70 70 70 70 70 70 69 69 69 68 68 67 66 66 66 66 66 66 66 66 66 66 66 66 66 66 66 66 66 65 65 65 65 65 65 65 65 65 65 64 64 64 60 60 61 62 62 62 62 62 62 64 64 64 64 64 64 64 64 64 64 64 64 65 65 65 65 65 65 65 65 65 65 65 65 66 66 67 68 69 70 70 70 71 71 71 71 72 72 72 72 72 72 72 72 72 72 72 72 72 72 72 72 72 72 72 72 72 72 72 72 72 72 72 72 72 72 72 72 73 73 73 73 73 73 73 73 73 73 73 73 73 73 73 73 72 72 72 72 72 72 72 72 71 71 70
68 69 69 69 69 70 70 69 68 67 64 65 65 65 65 64 64 63 62 62 62 62 61 61 61 61 61 61 62 62 62 63 63 64 65 65 66 66 66 67 68 69 69 70 70 70 70 70 71 71 71 71 71 71 71 71 72 72 72 72 72 72 72 72 73 73 74 74 74 74 74 74 74 74 74 73 72 72 72 72 72 72 73 72 72 72 72 72 72 72 72 72 72 72 72 72 72 72 72 72 72 72 72 71 71 71 71 71 71 71 70 70 70 70 70 70 69 69 69 68 67 67 66 66 66 66 66 66 66 66 66 66 66 66 66 66 66 66 66 66 65 65 65 65 65 65 65 65 64 64 64 64 60 60 63 62 62 62 62 62 64 64 64 64 64 64 64 64 64 64 64 64 64 64 65 65 65 65 65 65 65 65 65 65 66 66 66 67 68 69 70 70 70 71 71 71 71 72 72 72 72 72 72 72 72 72 72 72 72 72 72 72 72 72 72 72 72 72 72 72 72 72 72 72 72 72 72 72 72 72 73 73 73 73 73 73 73 73 73 73 73 73 73 73 72 72 72 72 72 72 72 72 72 72 72 71
68 68 68 69 69 69 70 69 68 66 64 64 64 64 64 64 64 63 63 62 62 62 61 61 61 61 61 61 61 62 62 62 63 64 64 64 65 65 66 67 68 68 69 69 70 70 70 71 71 71 71 71 71 71 71 71 72 72 72 72 72 72 72 73 73 73 74 74 74 74 74 74 74 74 74 73 73 72 72 72 72 73 73 72 72 72 72 72 72 72 72 72 72 72 72 72 72 72 72 72 72 72 72 71 71 71 71 71 71 71 70 70 70 70 70 70 69 69 69 68 67 67 66 66 66 66 66 66 66 66 66 66 66 66 66 66 66 66 66 66 66 66 65 65 65 65 65 65 64 64 64 64 64 63 63 63 64 64 64 64 64 64 63 63 64 64 64 64 64 64 64 64 64 64 64 65 65 65 65 65 65 65 65 66 66 66 67 68 68 69 70 70 70 71 71 71 71 72 72 72 72 72 72 72 72 72 72 72 72 72 72 72 72 72 72 72 72 72 72 72 72 72 72 72 72 72 72 72 72 72 72 72 72 72 73 73 73 73 73 73 73 73 73 72 72 72 72 72 72 72 72 72 72 72 72 71
67 68 68 68 69 69 69 68 67 66 64 64 64 64 64 64 64 63 63 63 62 62 61 61 61 61 61 61 61 61 61 62 63 63 64 64 64 65 66 67 67 68 69 69 70 70 70 71 71 71 71 71 71 71 71 72 72 72 72 72 72 73 73 73 74 74 74 74 74 74 74 74 74 74 74 74 73 72 72 72 72 73 73 72 72 72 72 72 72 72 72 72 72 72 72 72 72 72 72 72 72 72 72 72 71 71 71 71 71 71 71 70 70 70 70 70 69 69 69 68 67 67 66 66 66 66 66 66 66 66 67 66 66 66 66 66 66 66 66 66 66 66 65 65 65 65 65 65 65 65 65 65 65 65 65 65 64 64 64 64 63 63 63 63 64 64 64 64 64 64 64 64 64 64 64 64 65 65 65 65 65 65 65 66 66 67 67 68 69 69 70 70 70 71 71 71 71 72 72 72 72 72 72 72 72 72 72 72 72 72 72 72 72 72 72 72 72 72 72 72 72 72 72 72 72 72 72 72 72 72 72 72 72 72 72 72 72 72 73 72 72 72 72 72 72 72 72 72 72 72 72 72 72 72 72 72
67 67 67 68 68 68 69 68 67 66 64 64 64 64 64 64 64 64 63 63 62 62 61 61 61 61 61 61 61 61 61 62 62 62 63 63 64 64 66 66 67 68 68 69 70 70 70 71 71 71 71 71 71 71 71 72 72 72 72 72 73 73 73 74 74 74 74 74 75 75 75 74 74 74 74 74 73 73 72 72 73 73 73 73 72 72 72 72 72 72 72 72 72 72 72 72 72 72 72 72 72 72 72 72 71 71 71 71 71 71 71 71 70 70 70 70 69 69 69 68 67 67 66 66 66 66 66 66 66 66 67 67 67 67 67 66 66 66 66 66 66 66 66 65 66 66 66 66 66 65 65 65 65 65 65 64 64 64 62 62 62 63 63 64 64 64 64 64 64 64 64 64 64 64 64 64 65 65 65 65 66 66 66 66 67 67 68 68 69 69 70 70 70 71 71 71 71 72 72 72 72 72 72 72 72 72 72 72 72 72 72 72 72 72 72 72 72 72 72 72 72 72 72 72 72 72 72 72 72 72 72 72 72 72 72 72 72 72 73 72 72 72 72 72 72 72 72 72 72 73 73 73 73 72 72 72
66 66 66 67 68 68 69 68 67 65 64 64 64 64 64 64 64 64 64 63 63 62 61 61 61 61 60 60 61 61 61 61 61 62 62 63 64 64 65 66 67 67 68 69 69 70 70 71 71 71 71 71 71 71 71 72 72 72 72 72 73 73 74 74 74 74 75 75 75 75 75 75 74 74 74 74 73 73 73 73 73 73 73 73 72 72 72 72 72 72 72 72 72 72 72 72 72 72 72 72 72 72 72 72 71 71 71 71 71 71 71 71 70 70 70 70 69 69 68 68 68 67 66 66 66 66 66 66 66 66 67 67 67 67 67 67 66 66 66 66 67 67 67 67 67 67 67 66 66 65 65 65 65 65 64 64 64 65 62 62 62 63 64 64 64 64 64 64 64 64 64 64 64 64 64 64 65 65 65 66 66 66 66 67 67 68 68 69 69 69 70 70 70 71 71 71 71 72 72 72 72 72 72 72 72 72 72 72 72 72 72 72 72 72 72 72 72 72 72 72 72 72 72 72 72 72 72 72 72 72 72 72 72 72 72 72 72 72 73 72 72 72 72 72 72 72 72 72 73 73 73 73 73 73 73 73
66 66 66 67 67 68 68 67 67 66 65 64 64 64 64 64 64 64 64 63 63 62 62 62 61 61 61 61 61 60 60 61 61 61 62 63 63 64 65 66 66 67 68 68 69 70 70 71 71 71 71 71 71 71 72 72 72 72 72 73 73 74 74 74 74 75 75 75 75 75 75 74 74 74 74 73 73 73 73 73 73 72 72 72 72 72 72 72 72 72 72 72 72 72 72 72 72 72 72 72 72 72 72 72 72 71 71 71 71 71 71 71 71 71 70 70 70 69 69 68 68 67 67 66 66 66 66 66 66 66 66 67 67 67 67 67 67 66 66 67 67 67 67 67 67 67 67 67 66 66 66 66 65 65 65 65 65 65 62 62 63 64 64 64 64 64 64 64 64 64 64 64 64 64 64 64 65 65 66 66 66 66 66 67 67 68 68 69 69 69 70 70 70 71 71 71 71 71 72 72 72 72 72 72 72 72 72 72 72 72 72 72 72 72 72 72 72 72 72 72 72 72 72 72 72 72 72 72 72 72 72 72 72 72 72 72 72 73 73 73 72 72 72 72 72 72 72 72 73 73 73 73 73 73 73 73
66 66 67 67 67 68 68 67 67 66 65 65 64 64 64 64 64 64 63 63 63 63 62 62 62 62 62 61 61 60 60 60 61 61 61 62 63 64 64 65 66 66 67 68 69 69 70 70 71 71 71 71 71 71 72 72 72 72 73 73 74 74 74 74 74 75 75 75 74 74 74 74 74 74 73 73 73 73 72 72 72 72 72 72 72 72 72 72 72 72 72 72 72 72 72 72 72 72 72 72 72 72 72 72 72 72 72 72 71 71 71 71 71 71 71 70 70 69 69 68 68 67 67 67 66 66 66 66 66 66 66 67 67 67 67 67 67 67 67 67 67 67 68 68 68 68 68 67 67 67 66 66 66 66 66 66 66 65 65 65 64 64 64 64 64 64 64 64 64 64 64 64 64 64 64 64 65 65 66 66 66 66 66 67 67 68 68 69 69 69 70 70 70 71 71 71 71 71 72 72 72 72 72 72 72 72 72 72 72 72 72 72 72 72 72 72 72 72 72 72 72 72 72 72 72 72 72 72 72 72 72 72 72 72 72 72 73 73 73 73 73 72 72 72 72 72 72 72 73 73 73 73 73 73 73 73
66 66 67 67 67 67 67 67 67 66 66 65 64 64 64 64 64 63 63 63 63 63 63 63 63 63 62 62 61 60 59 60 60 60 61 62 63 64 64 65 65 66 67 67 68 69 70 70 70 71 71 71 71 71 72 72 72 72 73 74 74 74 75 75 75 75 75 74 74 74 74 74 74 74 73 73 72 72 72 72 72 72 72 72 72 72 72 72 72 72 72 72 72 72 72 72 72 72 72 72 72 72 72 72 72 72 72 72 72 72 72 71 71 71 71 71 70 70 69 68 68 68 67 67 67 66 66 66 66 66 66 66 67 67 67 67 67 67 67 67 67 68 68 68 68 68 68 68 68 67 67 67 67 67 67 66 66 66 65 65 64 64 64 64 64 64 64 64 64 64 64 64 64 64 64 64 65 66 66 66 66 67 67 67 68 68 68 69 69 69 69 70 70 70 71 71 71 71 72 72 72 72 72 72 72 72 72 72 72 72 72 72 72 72 72 72 72 72 72 72 72 72 72 72 72 72 72 72 72 72 72 72 72 72 72 72 73 73 73 73 73 73 72 72 72 72 72 72 73 73 73 73 73 73 73 73
66 66 67 67 67 67 67 67 67 67 66 66 65 64 64 64 64 63 63 63 63 63 63 63 63 63 63 62 61 60 59 59 60 60 60 61 62 63 64 64 65 65 66 67 68 69 70 70 70 71 71 71 71 72 72 72 72 73 74 74 74 75 75 75 75 75 75 74 74 74 74 73 73 73 72 72 72 72 72 72 72 72 72 72 72 72 72 72 72 72 72 72 72 72 72 72 72 72 72 72 72 72 72 72 72 72 72 72 72 72 72 72 72 72 72 71 71 70 69 69 68 68 67 67 67 67 66 66 66 66 66 66 67 67 67 67 67 67 67 68 68 68 68 68 68 68 68 68 68 68 68 68 68 68 67 67 67 66 66 65 64 64 64 64 64 64 64 64 64 64 64 64 64 64 64 64 65 66 66 67 67 67 67 67 68 68 69 69 69 69 69 70 70 70 71 71 71 71 71 72 72 72 72 72 72 72 72 72 72 72 72 72 72 72 72 72 72 73 73 73 72 72 72 72 72 72 72 72 72 72 72 72 72 72 72 73 73 73 73 73 73 73 73 72 72 72 72 72 73 73 73 73 73 73 73 73
66 66 66 66 67 67 67 67 67 66 66 66 65 64 64 64 64 64 63 63 63 63 63 63 63 63 63 62 61 60 59 59 59 59 60 61 61 62 63 63 64 64 65 66 67 68 69 69 70 70 71 71 71 71 72 72 72 73 74 74 74 74 75 74 74 74 74 74 73 73 72 72 72 72 72 72 72 72 72 72 72 72 72 72 72 72 72 72 72 72 72 72 72 72 72 72 72 72 72 72 72 72 72 72 72 72 72 72 72 72 72 72 72 72 72 71 71 70 69 69 68 68 67 67 67 66 66 66 66 66 66 66 66 67 67 67 67 67 67 67 68 68 68 68 68 68 68 68 68 68 68 68 68 68 67 67 67 66 66 65 65 64 63 63 64 64 64 64 64 64 64 64 64 64 64 64 65 66 67 67 67 67 67 67 68 68 68 69 69 69 69 69 70 70 70 71 71 71 71 72 72 72 72 72 72 72 71 72 72 72 72 72 72 72 72 72 72 72 72 72 72 72 72 72 72 72 72 72 72 72 72 72 72 72 72 72 73 73 73 73 73 73 72 72 72 72 72 72 72 73 73 73 73 73 73 73
66 66 66 66 66 67 67 67 66 66 66 66 65 64 64 64 64 64 64 64 64 64 63 63 63 63 63 62 61 60 59 59 59 59 59 60 60 61 62 62 63 64 65 66 66 67 69 69 69 70 70 71 71 71 71 72 72 72 73 73 74 74 74 74 74 74 73 73 72 72 72 72 72 72 72 72 72 72 71 71 71 71 71 71 72 72 72 72 72 71 71 71 71 71 71 72 72 72 72 72 72 72 72 72 72 72 72 72 72 72 72 72 72 72 72 71 71 70 70 69 69 68 67 67 67 66 66 66 66 66 66 66 66 67 67 67 67 67 67 67 68 68 68 68 68 68 68 68 68 68 68 68 68 68 68 67 67 66 66 65 65 62 62 62 63 64 64 64 64 64 64 64 64 64 64 64 65 66 67 67 67 67 67 67 68 68 68 68 68 69 69 69 70 70 70 71 71 71 71 71 72 72 72 72 71 71 71 71 72 72 72 72 72 72 72 71 71 71 71 71 72 72 72 72 72 72 72 72 72 72 72 72 72 72 72 72 72 73 73 73 73 73 72 72 72 72 72 72 72 72 72 73 73 73 73 73
65 66 66 66 66 66 67 66 66 66 65 65 65 64 64 64 64 64 64 64 64 64 64 63 63 63 63 62 61 60 59 59 59 58 58 59 59 60 60 62 63 63 64 65 66 67 67 68 69 69 70 70 71 71 71 72 72 72 73 73 73 74 74 74 73 73 73 72 72 72 72 72 71 71 71 71 71 71 71 71 71 71 71 71 71 71 72 71 71 71 71 71 71 71 71 71 72 72 72 72 72 72 72 72 72 73 73 73 72 72 72 72 72 72 72 71 71 71 70 70 69 68 67 67 67 66 66 66 66 66 66 66 66 66 67 67 67 67 67 67 67 68 68 68 68 68 68 68 68 68 68 68 68 68 68 67 67 67 66 66 65 62 62 62 63 64 64 64 64 64 64 64 64 64 64 64 65 66 67 67 67 67 67 67 68 68 68 68 68 68 68 69 69 70 70 70 71 71 71 71 72 72 72 72 71 71 71 71 71 72 72 72 72 71 71 71 71 71 70 71 71 72 72 72 72 72 72 72 72 72 72 72 72 72 72 72 72 73 73 73 73 73 72 72 72 72 72 72 72 72 72 72 72 72 73 73
65 65 66 66 66 66 66 66 66 66 65 65 65 65 64 64 64 64 64 64 64 64 64 63 63 63 63 62 61 60 59 59 58 58 57 58 58 59 59 61 62 63 64 64 65 66 67 68 68 69 70 70 70 71 71 71 72 72 72 73 73 74 74 73 73 72 72 72 72 72 71 71 71 71 71 71 71 71 71 71 71 71 71 71 71 71 71 71 71 71 71 71 71 71 71 71 71 72 72 72 72 72 72 73 73 73 74 73 73 72 72 72 72 72 72 71 71 71 70 70 69 68 67 67 67 66 66 66 66 66 66 66 66 66 67 67 67 67 67 67 67 68 68 68 68 68 68 68 68 68 68 68 68 68 68 67 67 67 67 66 65 62 64 64 64 64 64 64 64 64 64 64 64 64 64 64 65 66 67 67 67 67 67 67 67 68 68 68 68 68 68 69 69 70 70 70 71 71 71 71 72 72 72 71 71 71 71 71 71 72 72 72 72 71 71 71 70 70 70 70 71 72 72 72 72 72 72 72 72 72 72 72 72 72 72 72 72 72 73 73 73 73 72 72 72 72 72 72 72 72 72 72 72 72 72 72
65 65 65 65 65 66 66 66 65 65 65 65 65 65 65 64 64 64 64 64 64 64 64 64 63 63 63 62 62 61 60 60 59 58 58 58 58 59 59 60 61 63 64 64 64 65 66 67 68 68 69 69 70 70 71 71 72 72 72 72 72 73 73 73 72 72 72 72 72 71 71 71 71 71 71 71 70 70 70 70 70 70 70 71 71 71 71 71 71 71 71 71 71 71 71 71 72 72 72 72 72 72 72 73 73 73 73 73 73 72 72 72 72 72 72 71 71 71 70 70 69 68 67 67 67 66 66 66 66 66 65 66 66 66 66 67 67 67 67 67 67 68 68 68 68 68 68 68 68 68 68 68 68 68 68 67 67 67 66 66 65 64 64 64 64 64 64 64 64 64 64 64 64 64 64 64 65 66 67 67 67 67 67 67 68 68 68 68 68 68 68 69 69 69 70 70 70 70 71 71 71 72 72 72 71 71 71 71 71 71 71 71 71 71 70 70 70 70 70 70 71 72 72 72 72 72 72 72 72 72 72 72 72 72 72 72 72 72 73 73 73 73 73 72 72 72 72 72 72 72 72 72 72 72 72 72
65 65 65 65 65 65 65 65 65 65 65 65 65 65 65 65 65 65 65 64 64 64 64 64 64 63 63 63 62 62 61 60 60 59 58 58 58 58 59 60 61 62 63 64 64 64 65 66 67 68 68 69 69 70 70 71 71 72 72 72 72 72 72 72 72 72 72 72 72 71 71 71 71 70 70 70 70 70 70 70 70 70 70 70 71 71 71 71 71 71 71 71 71 71 71 71 72 72 72 72 72 72 72 73 73 73 73 73 73 72 72 72 72 72 71 71 71 71 70 70 69 68 67 67 66 66 66 66 66 65 65 66 66 66 66 66 67 67 67 67 67 67 68 68 68 68 68 68 68 68 68 68 68 68 68 67 67 66 66 65 65 64 64 64 64 64 64 64 64 64 64 64 64 64 64 64 65 66 67 67 67 67 67 67 68 68 68 68 68 68 68 68 68 69 69 69 70 70 70 71 71 71 72 72 72 71 71 71 71 70 70 70 70 70 70 70 70 69 69 70 71 72 72 72 72 72 72 72 72 72 72 72 72 72 72 72 72 72 73 73 73 73 73 72 72 72 72 72 72 72 72 72 72 72 72 72
65 64 64 64 64 64 64 64 64 64 64 64 64 65 65 65 65 65 65 65 65 64 64 64 64 64 63 63 63 62 62 61 60 59 58 58 58 58 58 59 60 61 62 63 64 64 65 66 66 67 67 68 69 69 70 70 71 72 72 72 72 72 72 72 72 72 72 72 71 71 71 70 70 70 70 70 70 70 70 70 70 70 70 70 70 70 70 71 71 71 71 71 71 71 71 71 72 72 72 72 72 72 72 73 73 73 73 73 73 72 72 72 72 72 71 71 71 71 70 70 69 68 67 67 66 66 66 66 65 65 65 66 66 66 66 66 67 67 67 67 67 67 68 68 68 68 68 68 68 68 68 68 68 68 68 68 67 66 66 65 64 64 64 64 64 64 64 64 64 64 64 64 64 64 64 64 65 66 67 67 67 67 67 67 68 68 68 68 68 68 67 68 68 68 69 69 69 69 70 70 71 71 72 72 72 72 72 71 70 70 69 69 69 69 69 69 69 69 69 70 71 72 72 72 72 72 72 72 72 72 72 72 72 72 72 72 72 73 73 73 73 73 73 73 72 72 72 72 72 72 72 72 72 72 72 72
65 64 64 64 64 64 64 64 64 64 64 64 64 65 65 65 65 65 66 65 65 65 65 64 64 64 64 63 63 63 63 62 61 60 59 59 58 58 58 59 60 61 62 62 63 64 64 65 66 66 67 67 68 69 69 70 71 71 72 72 72 72 72 72 72 72 72 71 71 71 70 70 70 70 70 70 70 70 70 70 70 70 70 70 70 70 70 70 71 71 71 71 71 71 71 71 72 72 72 72 72 72 72 73 73 73 73 73 72 72 72 72 72 72 71 71 71 70 70 70 69 68 67 67 66 66 65 65 65 65 65 65 66 66 66 66 66 67 67 67 67 67 67 68 68 68 68 68 68 68 68 68 69 69 69 68 67 66 65 65 64 64 64 64 64 64 64 64 64 64 64 64 64 64 64 64 65 66 67 67 67 67 67 67 68 68 68 68 67 67 67 67 68 68 68 68 69 69 69 70 70 71 72 72 72 72 72 71 70 69 68 68 68 68 68 68 69 69 69 70 71 72 72 72 72 72 72 72 72 72 72 72 72 72 72 72 72 73 73 73 73 73 73 73 73 72 72 72 72 72 72 72 72 72 72 72
64 64 64 64 64 64 64 64 64 64 64 64 64 65 65 65 65 65 65 65 65 65 65 64 64 64 64 63 63 63 63 62 61 60 59 59 59 58 58 59 60 60 61 62 62 64 64 64 64 64 64 64 65 66 66 68 69 70 71 71 71 72 72 72 72 72 71 71 71 71 70 70 70 70 70 70 70 70 69 69 69 69 69 69 69 69 69 70 70 70 71 71 71 71 71 71 71 72 72 72 72 72 72 72 72 72 73 72 72 72 72 72 72 71 71 71 71 70 70 69 69 68 67 67 66 66 65 65 65 65 65 65 66 66 66 66 67 67 67 67 67 67 68 68 68 68 68 68 68 69 69 69 69 69 69 68 67 66 66 65 65 64 64 64 64 64 64 64 64 64 64 64 64 64 64 65 65 66 67 67 67 67 67 67 67 68 68 67 67 67 67 67 68 68 68 68 68 69 69 69 70 71 71 72 72 71 71 70 70 69 68 68 68 68 68 68 69 69 69 70 70 71 72 72 72 72 72 72 72 72 72 72 72 72 72 72 72 73 73 73 73 73 73 73 73 72 72 72 72 72 72 72 72 72 72 72
64 64 64 64 64 64 64 64 64 64 64 64 65 65 65 65 65 65 65 65 65 65 65 64 64 64 64 63 63 63 63 62 61 61 60 59 59 59 59 59 59 60 60 61 62 62 63 63 63 63 63 63 64 64 64 65 67 69 70 70 71 71 72 71 71 71 71 71 71 70 70 70 70 70 70 69 69 69 69 69 69 69 69 69 69 69 69 69 70 70 70 71 71 71 71 71 71 72 72 72 72 72 72 72 72 72 72 72 72 72 72 72 72 71 71 71 70 70 70 69 69 68 68 67 66 66 65 65 65 65 65 65 66 66 66 66 67 67 67 67 67 68 68 68 68 68 68 68 69 69 69 69 69 69 69 68 68 67 66 66 66 65 65 65 65 64 64 64 64 64 64 64 64 65 65 65 66 66 67 67 67 67 67 67 67 67 67 67 67 67 67 67 67 68 68 68 68 68 68 69 70 70 71 70 70 70 70 69 69 69 68 68 68 68 68 69 69 69 69 70 70 71 72 72 72 72 72 72 72 72 72 72 72 72 72 72 72 73 73 73 73 73 73 73 73 72 72 72 72 72 72 72 72 72 72 72
64 64 64 64 64 64 64 64 64 64 64 65 65 65 65 65 65 65 65 65 65 65 65 64 64 64 64 64 63 63 63 62 62 61 60 60 59 59 59 59 59 59 60 60 61 61 62 62 62 62 62 62 62 62 63 64 65 67 69 69 70 71 71 71 71 71 71 70 70 70 70 70 70 70 69 69 69 69 69 69 69 68 68 68 68 68 68 69 69 70 70 70 71 71 71 71 71 72 72 72 72 72 72 72 72 72 72 72 72 72 72 72 71 71 71 71 70 70 70 69 69 68 68 67 66 66 65 65 65 65 65 66 66 66 66 66 67 67 67 67 67 68 68 68 68 68 69 69 69 69 69 69 69 69 69 68 68 67 67 67 66 66 66 65 65 65 65 65 65 65 65 65 65 65 66 66 66 67 67 67 67 67 67 67 67 67 67 67 67 67 67 67 67 67 68 68 68 68 68 69 69 70 70 70 69 69 68 68 68 68 68 68 68 68 68 69 69 69 69 70 70 71 72 72 72 72 72 72 72 72 72 72 72 72 72 72 72 73 73 73 73 73 73 73 73 73 72 72 72 72 72 72 72 72 72 72
64 64 64 64 64 64 64 64 64 64 65 65 65 65 65 65 65 65 65 65 65 65 65 64 64 64 64 64 63 63 63 62 62 61 60 60 60 60 59 59 59 59 59 59 59 60 60 60 60 60 60 61 61 61 61 63 64 66 68 68 69 70 71 71 71 70 70 70 70 70 70 70 70 69 69 69 69 69 69 69 68 68 67 67 67 67 67 68 68 69 70 70 70 70 71 71 71 71 72 72 72 72 72 72 72 72 72 72 72 72 72 72 71 71 71 70 70 70 70 69 68 68 67 67 66 66 65 65 65 65 65 66 66 66 66 67 67 67 67 67 68 68 68 68 68 68 69 69 69 69 69 69 69 69 69 69 68 68 68 68 67 67 67 66 66 65 65 65 65 65 65 66 66 66 67 67 67 67 67 67 67 67 67 67 67 67 67 67 67 67 67 67 67 67 68 68 68 68 68 68 69 69 70 69 68 68 67 67 68 68 68 68 68 68 68 69 69 69 69 70 70 71 71 72 72 72 72 72 72 72 72 72 72 72 72 72 72 72 73 73 73 73 73 73 73 73 72 72 72 72 72 72 72 72 72 72
64 64 64 64 64 64 64 64 64 64 64 64 64 64 65 64 64 64 64 64 64 64 64 64 64 64 64 64 63 63 63 63 62 62 61 61 61 61 60 60 60 60 60 60 60 60 60 60 60 60 60 60 60 61 61 62 63 64 66 67 68 69 70 70 70 70 69 69 69 69 69 69 69 68 69 69 68 68 68 68 67 67 67 67 67 67 67 67 68 68 69 69 70 70 70 71 71 71 72 72 72 72 72 72 72 72 72 72 72 72 72 72 71 71 71 70 70 70 69 69 68 68 67 67 66 66 66 66 66 66 66 66 66 67 67 67 67 67 68 68 68 68 68 68 69 69 69 69 69 69 69 69 69 69 69 69 69 68 68 68 67 67 67 66 66 66 65 65 65 66 66 66 66 67 67 67 67 67 67 67 67 67 67 67 67 67 67 67 67 67 67 67 67 67 67 67 68 68 68 68 68 69 69 68 68 67 67 67 68 68 68 68 68 68 68 69 69 69 69 69 70 70 71 71 71 71 72 72 72 72 72 72 72 72 72 72 72 72 72 72 73 73 73 73 73 73 72 72 72 72 72 72 72 72 72 72
64 64 64 64 64 64 64 64 64 64 64 64 64 64 64 64 64 64 64 64 64 64 64 64 64 64 64 64 64 63 63 63 63 63 62 62 62 62 61 61 61 61 61 61 60 60 60 60 60 60 60 60 60 60 60 61 62 63 64 65 66 67 68 68 68 69 69 69 69 69 69 68 68 67 67 67 67 67 67 66 66 66 66 66 66 66 66 67 67 68 68 69 69 69 70 70 71 71 72 72 72 72 72 72 72 72 72 72 72 72 72 71 71 71 71 70 70 69 69 68 68 67 67 67 66 66 66 66 66 66 66 66 67 67 67 67 68 68 68 68 68 68 68 69 69 69 69 69 69 69 69 69 69 69 69 69 69 68 68 68 68 67 67 67 66 66 66 66 66 66 66 66 66 67 67 67 67 67 67 67 67 67 67 67 67 67 67 67 67 67 67 67 67 67 67 67 67 67 67 68 68 68 68 68 67 67 67 67 68 68 68 68 68 68 68 69 69 69 69 69 70 70 70 70 71 71 71 71 71 71 71 71 71 71 71 72 72 72 72 72 72 73 73 73 73 73 72 72 72 72 72 72 72 72 72 72
64 64 64 64 64 64 64 64 64 64 64 64 64 64 64 64 64 64 64 64 64 64 64 64 64 64 64 64 64 63 63 63 63 63 63 63 63 63 62 62 62 62 62 61 61 60 60 60 60 59 59 60 60 60 60 61 62 62 63 64 64 66 67 67 67 67 68 68 68 68 69 68 67 66 65 65 65 65 65 65 65 65 65 65 65 66 66 66 67 67 67 68 68 69 69 70 70 71 71 71 72 72 72 72 72 72 72 72 72 72 72 71 71 71 71 70 70 69 68 68 68 67 67 67 66 66 66 66 66 66 67 67 67 67 68 68 68 68 68 68 69 69 69 69 69 69 69 69 69 69 69 69 69 69 69 69 69 68 68 68 68 68 67 67 67 67 66 66 66 66 66 67 67 67 67 67 67 67 67 67 67 67 67 67 67 67 67 67 67 67 67 67 67 67 67 67 67 67 67 67 67 67 67 67 67 67 67 67 67 68 68 68 68 68 68 69 69 69 69 69 69 70 70 70 70 70 71 71 71 71 71 71 71 71 71 71 71 72 72 72 72 73 73 73 73 73 72 72 72 72 72 72 72 72 72 72
64 64 64 64 64 64 64 64 64 64 64 64 64 64 64 64 64 64 64 64 64 64 64 64 64 64 64 64 64 63 63 63 64 64 64 64 64 63 63 63 63 63 62 62 61 60 59 59 59 59 59 59 59 59 59 60 61 61 62 63 63 64 65 65 66 66 66 67 67 68 68 67 66 65 64 64 64 64 64 64 64 64 64 64 65 66 66 66 66 66 66 67 68 68 69 69 70 71 71 71 71 72 72 72 72 72 72 72 72 71 71 71 71 71 70 70 69 69 68 68 67 67 67 67 67 66 66 66 67 67 67 67 67 68 68 68 68 68 69 69 69 69 69 69 69 69 69 69 70 70 70 70 69 69 69 69 69 69 68 68 68 68 68 68 67 67 66 65 65 65 65 67 67 67 67 67 67 67 67 67 67 67 67 67 67 67 68 67 67 67 67 67 67 67 67 67 67 67 67 67 67 67 67 67 67 67 66 67 67 68 68 68 68 68 68 69 69 69 69 69 69 69 69 70 70 70 70 70 70 70 70 70 71 71 71 71 71 71 72 72 72 72 73 73 73 73 72 72 72 72 72 72 72 72 72 72
64 64 64 64 64 64 64 64 64 64 64 64 64 64 64 64 64 64 64 64 64 64 64 64 64 64 64 64 64 64 64 64 64 64 64 64 64 64 64 63 63 63 63 62 62 61 60 60 60 60 60 60 59 59 59 60 60 61 61 62 62 63 64 64 64 64 65 66 66 67 68 66 65 64 64 64 64 64 64 64 64 64 64 64 64 65 65 65 66 66 66 67 67 68 68 69 70 70 71 71 71 71 71 71 71 71 71 71 71 71 71 71 71 70 70 70 69 69 68 68 68 67 67 67 67 66 66 66 67 67 67 67 68 68 68 68 69 69 69 69 69 69 69 69 69 69 70 70 70 70 70 70 69 69 69 69 69 69 68 68 68 68 68 67 67 67 65 65 64 64 65 66 67 67 67 67 67 67 67 67 67 67 67 68 68 68 68 68 68 68 68 68 67 67 67 67 67 67 67 67 67 67 67 67 67 67 67 67 67 68 68 68 68 68 68 69 69 69 69 69 69 69 69 70 70 70 70 70 70 70 70 70 70 70 70 71 71 71 71 71 72 72 72 72 72 72 72 72 72 72 72 72 72 72 72 72
64 64 64 64 64 64 64 64 64 64 64 64 64 64 64 64 64 64 64 64 64 64 64 64 64 64 64 64 64 64 64 64 65 65 65 65 65 64 64 64 64 64 64 63 62 62 61 61 61 61 60 60 60 59 59 59 60 60 61 61 62 62 63 63 63 64 64 64 65 66 67 66 65 64 64 64 64 64 64 64 64 64 64 64 64 65 65 65 65 66 66 66 67 67 68 69 69 70 71 71 71 71 71 71 71 71 71 71 71 71 71 70 70 70 70 69 69 69 68 68 68 67 67 67 67 67 66 67 67 67 67 68 68 68 69 69 69 69 69 69 69 69 69 69 70 70 70 70 70 70 70 70 69 69 69 69 69 69 68 68 68 68 67 67 67 67 65 64 64 64 64 65 67 67 67 67 67 67 67 67 67 67 68 68 68 68 68 68 68 68 68 68 68 68 67 67 67 67 67 67 67 67 67 67 67 67 67 67 67 68 68 68 68 68 68 69 69 69 69 69 69 69 69 70 70 70 70 70 70 70 70 70 70 70 70 70 70 71 71 71 71 71 71 72 72 72 72 72 72 72 72 72 72 72 72 72
64 64 64 64 64 64 64 64 64 64 64 64 64 64 64 64 64 64 64 64 64 64 64 64 64 64 64 64 65 65 65 65 66 66 66 66 66 65 65 65 65 64 64 64 63 63 62 62 61 61 61 60 60 59 58 59 59 59 60 60 61 61 62 62 62 63 64 64 64 65 67 65 64 64 64 64 64 64 64 64 64 64 64 64 64 64 65 65 65 65 66 66 66 67 67 68 69 70 71 71 71 71 71 71 71 71 71 70 70 71 71 70 70 70 69 69 69 68 68 68 68 67 67 67 67 67 67 67 67 67 68 68 68 69 69 69 69 69 69 69 69 69 69 70 70 70 70 70 70 70 70 70 69 69 69 69 69 68 68 68 68 67 67 67 67 67 63 64 64 64 63 64 64 67 67 67 67 67 67 67 67 67 68 68 68 68 68 68 68 68 68 68 68 68 68 68 68 68 67 67 67 67 67 67 67 67 67 67 67 68 68 68 68 68 68 69 69 69 69 69 69 70 70 70 70 70 70 70 70 70 70 70 70 70 70 70 70 70 70 71 71 71 71 71 72 72 72 72 72 72 72 72 72 72 72 72
64 64 64 64 64 64 64 64 64 64 64 64 64 64 64 64 64 64 64 64 64 64 64 64 64 64 64 65 65 66 66 66 67 67 67 67 67 66 66 66 66 65 65 64 64 63 63 62 62 62 61 61 60 59 58 58 58 58 59 59 60 60 61 61 62 62 63 63 64 64 66 64 64 64 63 64 64 64 64 64 64 64 64 64 64 64 64 65 65 65 66 66 66 66 66 68 69 70 70 70 70 70 70 70 70 70 70 70 70 70 70 69 69 69 69 69 69 68 68 68 68 67 67 67 67 67 67 67 67 68 68 68 68 69 69 69 69 69 69 69 70 70 70 70 70 70 70 70 70 70 70 70 69 69 69 69 69 68 68 68 68 67 67 67 67 62 62 62 62 63 63 63 63 64 67 67 67 67 67 67 67 67 68 68 68 68 68 68 68 68 68 68 68 68 68 68 68 68 68 68 67 67 67 67 67 67 67 67 68 68 68 68 68 68 68 69 69 69 70 70 70 70 70 70 70 70 70 70 70 70 70 70 70 70 70 70 70 70 70 70 70 70 70 71 71 72 72 72 72 72 72 72 72 72 72 72
64 64 64 64 64 64 64 64 64 64 64 64 64 64 64 64 64 64 64 64 64 64 64 64 64 64 64 65 65 66 67 67 67 67 67 67 67 67 66 66 66 66 66 65 64 64 63 63 62 62 61 61 60 59 58 58 58 58 58 59 59 60 60 61 61 62 63 63 63 64 64 64 64 64 63 63 64 64 64 64 64 64 64 64 64 64 64 64 65 65 65 65 66 66 66 67 68 69 70 70 70 70 70 70 70 70 70 70 70 70 70 69 69 69 69 69 68 68 68 68 68 67 67 67 67 67 67 67 67 68 68 68 68 69 69 69 69 69 69 70 70 70 70 70 70 70 70 70 70 70 70 70 69 69 69 69 69 68 68 68 68 67 67 67 67 62 62 62 62 62 63 63 62 63 67 67 67 67 67 67 67 68 68 68 68 68 68 68 68 68 68 68 68 68 68 68 68 68 68 68 68 68 68 68 68 68 68 68 68 68 68 68 68 68 68 69 69 69 70 70 70 70 70 70 70 70 70 70 70 70 70 70 70 70 70 70 70 70 70 70 70 71 71 71 71 72 72 72 72 72 72 72 72 72 72 72
64 64 64 64 64 64 64 64 64 64 64 64 64 64 64 64 64 64 63 63 64 64 64 64 64 64 64 65 66 66 67 67 67 67 67 67 67 67 67 67 67 67 67 66 65 64 64 63 62 62 61 61 60 59 58 58 58 58 58 59 59 60 60 61 61 62 62 63 63 63 64 64 64 63 63 63 63 64 64 64 64 64 64 64 64 64 64 64 64 65 65 65 65 66 66 67 68 69 70 70 70 70 70 70 70 70 70 70 70 70 69 69 69 69 69 69 68 68 68 68 68 67 67 67 67 67 67 67 68 68 68 68 69 69 69 69 69 69 70 70 70 70 70 70 70 70 70 70 70 70 70 70 69 69 69 69 69 69 68 68 68 67 67 67 67 66 66 62 62 62 63 62 62 62 62 67 67 67 67 67 68 68 68 68 68 68 68 68 68 69 69 68 68 68 68 68 68 68 68 68 68 68 68 68 68 68 68 68 68 68 68 68 68 69 69 69 69 70 70 70 70 70 70 70 70 70 70 70 70 70 70 70 70 70 70 70 70 70 70 70 71 71 71 71 72 72 72 72 72 72 72 72 72 72 72 72
64 64 64 64 64 64 64 64 64 64 64 64 64 64 64 64 64 63 63 63 63 64 64 64 64 64 64 64 66 66 67 67 67 67 68 68 68 68 68 67 67 67 67 66 66 65 64 63 63 62 62 61 60 59 58 58 58 58 58 59 59 60 60 61 61 61 62 62 63 63 63 63 63 63 63 63 63 64 64 64 64 64 64 64 64 64 64 64 64 64 65 65 65 65 66 67 68 69 70 70 70 70 70 70 70 70 70 70 69 69 69 69 69 69 69 69 68 68 68 68 68 67 67 67 67 67 67 67 68 68 68 68 69 69 69 69 69 69 70 70 70 70 70 70 70 70 70 70 70 70 70 70 69 69 69 69 69 69 69 68 68 67 67 67 67 67 66 66 62 62 62 62 62 62 62 67 67 67 67 67 68 68 68 68 68 68 68 69 69 69 69 69 69 69 69 69 69 69 69 68 68 68 68 68 68 68 68 68 68 68 68 69 69 69 69 69 70 70 70 70 70 70 70 70 70 70 70 70 70 70 70 70 70 70 70 70 70 70 70 70 71 71 71 72 72 72 72 72 72 72 72 72 72 72 72 72
64 64 64 64 64 64 64 64 64 64 63 63 63 63 63 64 63 63 63 63 63 63 63 64 64 64 64 64 66 67 67 67 68 68 68 68 68 68 68 68 68 68 68 67 66 66 65 64 64 62 62 61 60 59 58 58 58 58 58 58 59 60 60 61 61 61 62 62 62 63 63 63 63 63 63 63 63 63 64 64 64 64 64 64 64 64 64 64 64 64 64 65 65 65 65 67 68 69 70 70 70 70 70 70 70 70 70 69 69 69 69 69 69 69 69 68 68 68 68 68 68 67 67 67 67 67 67 68 68 68 68 68 69 69 69 69 69 70 70 70 70 70 70 70 70 70 70 70 70 70 70 70 69 69 69 69 69 69 69 68 68 68 67 67 67 67 66 66 67 62 62 62 62 62 62 67 67 67 67 68 68 68 68 68 68 68 69 69 69 69 69 69 69 69 69 69 69 69 69 69 69 69 69 69 69 69 69 69 69 69 69 69 69 69 69 69 70 70 70 70 70 71 71 71 71 71 71 71 71 70 70 70 70 70 70 70 70 70 70 71 71 71 72 72 72 72 72 72 72 72 72 72 72 72 72 72
64 64 64 64 64 64 62 62 62 62 63 62 62 62 63 63 63 63 63 63 63 63 63 64 64 64 64 65 66 66 67 67 67 68 68 68 68 68 68 68 68 68 68 67 66 66 65 64 64 62 62 61 60 59 58 58 58 58 58 58 59 60 60 60 61 61 61 62 62 62 63 63 63 63 63 63 63 63 63 64 64 64 64 64 64 64 64 64 64 64 64 64 65 65 65 66 68 69 70 70 70 70 70 70 70 70 69 69 69 69 69 69 69 69 68 68 68 68 68 68 68 67 67 67 67 67 67 68 68 68 68 68 69 69 69 69 69 69 70 70 70 70 70 70 70 70 70 70 70 70 70 70 70 70 69 69 69 69 69 68 68 68 67 67 67 67 67 67 67 67 62 62 62 62 62 67 67 68 68 68 68 68 68 69 69 69 69 69 69 69 69 69 69 69 69 69 69 69 69 69 69 69 69 69 69 69 69 69 69 69 69 69 69 70 70 70 70 70 71 71 71 71 71 71 71 71 71 71 71 71 71 71 70 70 70 70 70 70 70 71 71 71 72 72 72 72 72 72 72 72 72 72 72 72 72 72
64 64 64 64 64 62 61 61 61 62 62 62 62 62 62 63 63 63 63 63 63 63 63 64 64 64 65 65 66 66 67 67 67 67 68 68 68 68 68 68 68 68 68 67 67 66 65 64 63 63 62 61 60 59 58 58 58 58 58 58 59 59 60 60 61 61 61 62 62 62 63 63 63 63 63 63 63 63 63 63 63 64 64 64 64 64 64 64 64 64 64 64 64 65 65 66 68 69 70 70 70 70 70 70 70 69 69 69 69 69 69 69 68 68 68 68 68 68 68 68 67 67 67 67 67 67 67 68 68 68 68 68 69 69 69 69 69 69 70 70 70 70 70 70 70 70 70 70 70 70 70 70 70 70 70 70 69 69 69 69 68 68 68 68 67 67 67 67 67 67 67 62 62 62 62 68 68 68 68 68 68 69 69 69 69 69 69 69 69 69 70 69 69 69 69 69 69 69 69 69 69 69 69 69 69 69 69 70 70 70 70 70 70 70 70 70 70 71 71 71 71 71 71 71 71 71 71 71 71 71 71 71 71 71 70 70 71 71 71 71 71 71 72 72 72 72 72 72 72 72 72 72 72 72 72 72
64 64 64 64 64 61 61 61 61 61 62 62 62 62 62 63 63 63 63 63 63 63 63 64 64 64 65 65 66 66 67 67 67 67 67 67 67 67 68 68 68 68 68 67 67 66 66 64 64 63 62 61 60 59 58 58 58 58 57 58 59 59 60 60 60 61 61 61 62 62 62 62 63 63 63 63 63 63 63 63 63 63 64 64 64 64 64 64 64 64 64 64 64 64 65 66 67 69 70 70 70 70 70 70 69 69 69 69 69 69 68 68 68 68 68 68 68 68 67 67 67 67 67 67 67 68 68 68 68 68 68 68 69 69 69 69 69 69 69 69 70 70 70 70 70 70 70 70 70 70 70 70 70 70 70 70 70 69 69 69 69 68 68 68 68 67 67 67 67 67 62 62 62 62 68 68 68 68 68 69 69 69 69 69 69 69 69 70 70 70 70 70 69 69 69 69 69 69 69 69 69 69 69 69 70 70 70 70 70 70 70 70 70 70 70 71 71 71 71 71 71 71 71 71 71 71 71 71 71 71 71 71 71 71 71 71 71 71 71 71 71 72 72 72 72 72 72 72 72 72 72 72 72 72 72 72
64 64 64 64 62 61 61 61 61 61 62 62 62 62 62 62 63 63 63 63 63 63 63 64 64 64 65 66 66 66 66 67 67 67 67 67 67 67 67 67 68 68 68 67 67 66 66 65 64 63 62 61 60 59 58 58 58 58 57 58 59 59 60 60 60 61 61 61 61 62 62 62 62 63 63 63 63 63 63 63 63 63 63 64 64 64 64 64 64 64 64 64 64 64 65 66 67 69 70 70 70 70 70 70 69 69 69 69 69 68 68 68 68 68 68 68 68 68 67 67 67 67 67 67 68 68 68 68 68 68 68 68 69 69 69 69 69 69 69 69 69 70 70 70 70 70 70 70 70 70 70 70 70 70 70 70 70 70 70 69 69 69 68 68 68 68 68 67 67 67 62 62 62 68 68 68 68 69 69 69 69 69 69 69 69 70 70 70 70 70 70 70 69 69 69 69 69 69 68 69 69 69 70 70 70 70 70 70 71 71 71 70 70 71 71 71 71 71 71 71 71 71 72 72 72 72 72 72 71 71 71 71 71 71 71 71 71 71 71 71 71 72 72 72 72 72 72 72 72 72 72 72 72 72 72 72
63 63 63 63 62 61 61 61 61 61 62 62 62 62 62 62 63 63 63 63 63 63 63 63 64 64 65 65 66 66 66 66 66 67 67 67 67 67 67 67 67 67 68 67 67 66 66 65 64 63 63 62 61 60 59 58 58 58 57 58 59 59 60 60 60 60 61 61 61 62 62 62 62 63 63 63 64 64 64 64 64 64 64 64 64 64 64 64 64 64 64 64 64 64 64 66 67 68 70 70 70 70 70 70 69 69 69 69 69 68 68 68 68 68 68 68 68 68 67 67 67 67 67 67 68 68 68 68 68 68 68 68 69 69 69 69 69 69 69 69 69 70 70 70 69 69 69 69 69 69 69 69 69 69 68 68 68 68 68 68 68 68 68 68 67 67 67 67 67 67 62 62 62 68 68 68 69 69 69 69 69 69 69 70 70 70 70 70 70 69 69 69 69 69 68 68 68 68 68 69 69 69 70 70 70 70 70 70 71 71 71 71 71 71 71 71 71 71 71 71 72 72 72 72 72 72 72 72 72 71 71 71 71 71 71 71 71 71 71 71 71 71 71 72 72 72 72 72 72 72 72 72 72 72 72 72
63 63 63 63 63 61 61 61 61 61 63 62 62 62 62 62 63 63 63 63 63 63 63 63 64 64 65 65 65 66 66 66 66 66 67 67 67 67 67 67 67 67 67 67 67 66 66 47 64 63 63 62 61 60 59 58 58 58 58 58 59 59 59 60 60 60 61 61 61 61 62 62 63 63 64 64 64 65 65 65 65 65 64 64 64 64 64 64 64 64 64 64 64 64 64 66 67 68 70 70 70 70 70 70 69 69 69 69 69 68 68 68 68 68 68 68 68 67 67 67 67 67 67 67 68 68 68 68 68 68 68 69 69 69 69 69 69 69 69 69 70 70 70 69 69 69 69 69 68 68 68 68 68 68 68 67 67 67 67 67 67 67 67 67 67 67 67 67 67 67 67 62 62 68 68 68 69 69 69 69 69 70 70 70 70 70 70 70 69 69 68 68 68 68 68 68 68 68 68 69 69 69 70 70 70 70 70 70 71 71 71 71 71 71 71 71 71 72 72 72 72 72 72 72 72 72 72 72 72 72 71 71 71 71 71 71 71 71 71 71 71 71 71 71 71 72 72 72 72 72 71 71 71 71 71 72
63 63 63 63 63 62 61 61 61 62 63 63 62 62 62 63 63 63 63 63 63 63 63 63 64 64 65 65 65 65 65 66 66 66 66 66 66 66 67 67 67 67 67 67 67 66 66 65 46 63 63 62 61 60 59 59 58 58 58 58 59 59 59 60 60 60 61 61 61 61 61 62 63 63 64 64 65 66 67 67 66 66 65 65 64 64 64 64 64 64 64 64 64 64 64 65 67 68 70 70 70 70 70 70 69 69 69 69 69 68 68 68 68 68 68 68 68 67 67 67 67 67 67 67 68 68 68 68 68 68 69 69 69 69 69 69 69 69 69 69 70 70 70 69 69 69 69 68 68 67 67 67 67 67 67 67 67 67 66 67 67 67 67 67 67 67 67 67 67 67 67 67 67 68 68 68 69 69 69 69 70 70 70 70 70 70 70 70 69 68 67 67 67 67 67 68 68 68 68 68 69 69 70 70 70 70 70 71 71 71 71 71 71 71 72 72 72 72 72 72 72 72 72 72 72 72 72 72 72 72 72 71 71 71 71 71 71 71 71 71 71 71 71 71 71 71 71 71 71 71 71 71 71 71 71 71
63 63 63 63 63 63 62 62 62 63 63 63 63 63 63 63 63 63 63 63 63 63 63 63 64 64 64 65 65 65 65 65 66 66 66 66 66 66 66 66 66 67 67 67 66 66 66 65 64 64 63 62 61 60 59 59 58 58 58 58 58 59 59 60 60 60 60 61 61 61 61 62 63 63 64 65 66 66 69 68 68 67 67 66 65 64 64 64 64 64 64 64 64 64 64 65 67 68 69 70 70 70 70 70 69 69 69 69 69 68 68 68 68 68 68 68 68 67 67 67 67 67 67 67 68 68 68 68 68 68 69 69 69 69 69 69 69 69 69 70 70 70 70 69 69 69 68 68 67 67 66 66 67 67 67 67 67 66 66 66 66 66 67 67 67 67 67 67 67 67 66 67 67 68 68 68 69 69 70 70 70 70 70 70 70 70 71 65 65 67 66 67 67 67 67 67 67 68 68 68 69 70 70 70 70 70 71 71 71 71 71 71 72 72 72 72 72 72 72 72 72 72 72 72 72 72 72 72 72 72 72 72 72 71 71 71 71 71 71 71 70 70 70 71 71 71 71 71 71 71 71 71 71 71 71 71
62 63 63 63 63 63 63 63 63 63 63 63 63 62 62 62 62 62 62 63 63 63 63 63 63 64 64 64 64 64 64 64 65 65 65 65 65 65 65 66 66 66 67 67 66 66 66 65 64 64 63 63 62 61 60 59 59 58 58 58 58 59 59 59 59 60 60 60 60 61 61 62 63 63 64 65 66 66 69 68 68 68 67 66 65 64 64 64 64 64 64 64 64 64 64 65 66 68 70 70 70 70 70 70 69 69 69 69 69 68 68 68 68 68 68 68 67 67 67 67 67 67 67 67 67 68 68 68 68 68 69 69 69 69 69 69 69 69 69 69 70 70 70 69 68 68 67 67 66 66 65 66 66 66 66 66 66 66 66 66 66 66 67 66 66 66 66 66 66 66 66 67 67 68 68 68 69 69 70 70 70 70 70 70 70 70 70 65 65 66 66 66 67 67 67 67 67 67 68 68 69 69 70 70 70 70 71 71 71 71 71 72 72 72 72 72 72 72 72 72 72 72 73 73 72 72 72 72 72 72 72 72 72 71 71 71 71 71 71 70 70 70 70 70 71 71 71 71 71 71 71 71 71 71 71 71
62 62 62 62 62 62 62 62 62 62 62 62 62 62 62 62 62 62 62 62 62 63 63 63 63 64 64 63 63 64 64 64 64 64 64 64 64 64 64 65 66 66 66 66 66 66 66 66 65 64 64 63 62 61 61 60 59 59 58 58 58 58 58 59 59 59 59 60 60 60 61 62 62 63 64 65 66 67 68 68 68 68 68 67 66 64 64 64 64 64 63 64 64 64 64 65 66 68 70 70 70 70 70 70 69 69 69 69 68 68 68 68 68 68 68 67 67 67 67 67 67 67 67 67 67 67 68 68 68 68 69 69 69 69 69 69 69 69 69 69 69 70 70 69 68 67 66 65 65 65 64 65 65 65 66 66 65 65 65 66 66 66 67 66 66 66 65 65 65 66 66 66 67 67 68 69 69 69 70 70 70 70 70 70 70 70 65 65 65 65 66 66 66 67 67 67 67 67 68 68 69 69 70 70 70 70 71 71 71 71 72 72 72 72 72 72 72 72 72 73 73 73 73 73 73 73 72 72 72 72 72 72 72 71 71 71 71 71 71 70 70 70 70 70 70 71 71 71 71 71 71 71 71 71 71 71
62 62 62 62 62 62 62 62 62 62 62 62 62 62 62 62 62 62 62 62 62 62 62 63 63 63 63 63 63 63 63 63 63 63 63 64 64 64 64 64 65 66 66 66 66 66 66 66 65 65 64 63 63 62 62 61 60 59 58 58 58 58 58 58 58 58 58 59 59 60 60 61 62 63 65 62 66 67 68 68 68 68 68 67 66 65 64 64 64 63 63 63 64 64 64 65 66 68 70 70 70 70 70 70 69 69 69 69 68 68 68 68 68 68 67 67 67 67 67 67 67 67 67 67 67 67 68 68 68 68 69 69 69 69 69 69 69 69 69 69 69 70 70 68 67 66 65 65 64 64 64 64 64 65 65 65 65 65 65 65 66 66 67 66 66 65 65 65 65 65 66 66 67 67 68 69 69 69 70 70 70 70 71 70 70 69 65 65 65 65 66 66 66 66 67 67 67 67 68 68 69 69 70 70 70 70 70 71 71 71 72 72 72 72 72 72 72 73 73 73 73 73 73 73 73 73 73 72 72 72 72 72 72 72 71 71 71 71 71 70 70 70 70 70 70 71 71 71 71 71 71 71 71 71 71 71
61 62 62 62 62 62 62 62 62 62 62 62 62 62 62 62 62 62 62 62 62 62 62 62 62 62 62 62 62 62 63 63 63 63 63 63 63 63 63 64 64 65 66 66 66 66 66 66 66 65 65 64 63 63 62 61 61 60 59 58 58 58 57 57 58 58 58 58 59 60 60 61 62 63 65 66 66 67 68 68 68 69 69 68 67 65 64 64 64 63 63 63 63 64 64 64 66 68 70 70 70 70 70 69 69 69 69 68 68 68 68 68 67 67 67 67 67 67 66 66 66 66 66 67 67 67 67 68 68 68 68 69 69 69 69 69 69 69 69 69 69 70 70 68 67 65 64 64 64 64 64 64 64 64 65 65 65 65 64 65 66 66 67 66 65 65 64 64 65 65 65 66 67 67 68 69 69 69 70 70 70 71 71 70 70 69 65 65 65 65 66 66 66 66 67 67 67 67 68 68 69 69 70 70 70 70 70 71 71 71 72 72 72 72 72 72 73 73 74 74 74 74 74 74 73 73 73 72 72 72 72 72 72 72 71 71 71 71 71 70 70 70 70 70 70 70 71 71 71 71 71 71 71 71 71 71
61 61 61 61 61 61 61 61 62 62 62 62 62 62 62 62 62 62 62 62 62 62 62 62 62 62 62 62 62 62 62 62 62 62 62 62 63 63 63 63 64 65 66 66 66 66 66 66 66 65 65 64 64 63 63 62 61 60 60 59 59 59 58 58 58 58 58 59 60 60 60 61 63 64 65 65 66 67 67 68 68 69 69 68 67 66 64 64 64 63 63 63 63 63 64 64 65 67 68 69 69 69 70 69 69 69 68 68 68 68 67 67 67 67 67 67 67 67 66 66 66 66 66 66 67 67 67 68 68 68 68 68 69 69 69 69 69 69 69 69 69 70 70 68 67 66 65 65 64 64 64 64 64 65 65 65 65 65 65 66 66 66 67 66 66 65 65 65 65 66 66 66 67 68 68 69 69 69 70 70 70 71 71 71 70 69 66 65 65 66 66 66 66 66 67 67 67 67 68 68 69 69 70 70 70 70 71 71 71 72 72 72 72 72 72 73 73 73 73 74 74 74 74 74 73 73 73 72 72 72 72 72 72 71 71 71 71 71 71 70 70 70 69 70 70 70 70 71 71 71 71 71 71 71 71 71
61 61 61 61 61 61 61 61 61 61 61 61 61 62 62 62 62 62 62 62 62 62 62 62 62 62 62 62 62 62 62 62 62 62 62 62 62 62 62 63 64 64 65 66 66 66 66 66 66 66 65 65 64 64 63 62 62 61 60 60 60 60 60 59 59 59 59 60 60 60 61 62 63 64 65 65 66 67 67 68 68 69 69 68 67 66 65 64 64 63 63 63 63 63 64 64 65 66 67 67 68 69 70 69 69 69 68 68 68 67 67 67 67 67 67 67 67 66 66 66 66 66 66 66 67 65 65 66 68 68 68 68 68 68 69 69 69 69 69 69 69 70 70 69 68 68 67 66 66 66 65 65 65 66 66 66 66 66 66 66 67 67 67 67 66 66 65 66 66 66 67 67 67 68 68 69 69 69 70 70 71 71 71 71 70 70 69 66 66 66 66 66 66 66 67 67 67 67 68 68 69 69 70 70 70 70 71 71 71 72 72 73 73 73 73 73 73 73 73 74 74 74 74 74 74 73 73 73 72 72 72 72 72 71 71 71 71 71 71 70 70 70 69 69 70 70 70 70 71 71 71 71 71 71 71 71
60 60 60 61 61 61 61 61 61 61 61 61 61 61 61 61 61 61 61 61 61 61 61 61 61 61 61 61 61 61 61 61 61 61 61 62 62 62 62 63 63 64 65 65 66 66 66 66 66 66 66 65 65 64 64 63 62 62 61 61 61 61 61 60 60 60 60 60 61 61 61 62 63 64 65 65 66 67 67 68 68 68 69 68 67 67 65 64 64 63 63 63 63 63 63 64 64 65 66 66 67 68 69 69 69 68 68 68 68 67 67 67 67 67 66 66 66 66 66 66 66 66 66 66 67 65 65 65 68 68 68 68 68 68 69 69 69 69 69 69 69 70 70 69 69 69 69 68 68 67 67 67 67 67 67 67 67 67 67 67 68 68 68 67 67 67 66 66 67 67 67 68 68 68 68 69 69 70 70 70 71 71 71 71 71 70 70 68 67 66 66 66 66 66 66 67 67 67 68 68 69 69 70 70 70 70 71 71 72 72 73 73 74 74 74 74 74 73 73 74 74 74 74 74 74 73 73 73 72 72 72 72 72 71 71 71 71 71 71 70 70 69 69 69 69 69 70 70 70 71 71 71 71 71 71 71
60 60 60 60 60 60 60 61 61 61 61 61 61 61 61 61 61 61 61 61 61 61 61 61 61 61 61 61 61 61 61 61 61 61 61 61 61 61 62 62 63 64 65 65 65 66 66 66 66 66 66 66 65 65 64 63 63 62 62 62 62 62 62 61 61 61 60 61 61 62 62 63 63 64 65 65 66 66 67 68 68 68 69 68 68 67 66 65 64 63 63 63 63 63 63 64 64 64 65 66 67 68 69 69 69 68 68 68 67 67 66 66 66 66 66 66 66 66 66 66 66 66 65 66 66 65 65 65 67 68 68 68 68 68 69 69 69 69 69 69 69 70 70 70 70 70 70 70 70 70 69 69 69 69 68 69 69 69 69 69 69 69 69 68 68 67 67 67 67 68 68 68 68 68 69 69 69 70 70 70 71 71 72 71 71 71 71 68 67 66 66 66 66 66 66 67 67 67 68 68 69 69 70 70 70 70 71 71 72 72 74 74 74 75 75 75 74 74 73 73 74 74 74 74 74 73 73 73 72 72 72 72 72 71 71 71 71 71 71 70 70 69 69 69 69 69 69 70 70 71 71 71 71 71 71 72
59 59 59 59 59 59 60 60 60 60 60 60 61 61 61 61 61 61 61 61 61 61 61 61 61 61 61 61 60 60 60 60 60 60 60 61 61 61 62 62 63 64 64 65 65 66 66 66 66 66 66 66 65 65 64 64 63 63 62 62 62 62 63 62 61 61 61 61 61 62 45 36 63 64 65 65 66 67 67 68 68 68 69 68 68 67 67 65 64 63 63 63 63 63 63 64 64 64 65 65 66 68 69 69 69 68 68 67 67 67 66 66 66 66 66 66 66 66 66 66 66 65 65 65 66 65 65 65 68 68 68 68 68 68 69 69 69 69 69 69 70 70 70 70 70 70 71 70 70 70 70 70 69 69 69 69 69 69 69 69 69 69 69 69 68 68 67 68 68 68 68 68 68 69 69 69 70 70 70 71 71 71 72 71 71 70 69 68 67 66 66 66 66 67 67 67 67 67 68 68 69 69 70 70 70 70 71 71 72 72 74 74 74 75 75 75 74 73 72 73 73 74 74 74 74 74 73 73 72 72 72 72 71 71 71 71 70 70 70 70 69 69 69 69 69 69 69 70 70 70 71 71 71 71 72 72
58 58 58 58 58 59 59 59 59 59 59 60 60 60 61 61 61 61 61 61 61 61 61 61 61 60 60 60 60 59 59 59 59 59 60 60 61 61 61 62 63 63 64 65 65 66 66 66 66 67 67 66 66 65 64 64 63 63 63 63 63 63 63 63 62 61 61 61 61 62 35 33 63 64 65 65 66 67 67 68 68 68 69 68 68 68 67 65 64 64 64 63 63 63 63 64 64 64 64 65 66 67 69 69 68 68 68 67 67 67 66 66 66 66 66 66 66 66 66 66 66 65 64 65 65 65 65 65 68 68 68 68 68 69 69 69 69 69 69 70 70 70 70 70 70 71 71 71 70 70 70 70 70 69 69 69 69 69 69 69 69 69 69 69 68 68 68 68 68 68 69 68 68 69 69 70 70 70 71 71 71 72 72 71 70 69 69 68 67 66 66 66 66 67 67 67 67 68 68 68 69 69 70 70 70 70 70 71 72 72 74 74 74 75 75 74 74 72 72 72 73 74 74 74 74 74 73 72 72 72 72 72 71 71 71 70 70 70 69 69 69 69 68 69 69 69 69 70 70 70 70 71 71 71 72 72
57 57 57 57 57 57 58 58 58 58 58 59 60 60 61 61 61 61 61 61 61 60 60 60 60 60 60 60 59 59 58 58 58 59 59 59 60 61 61 62 63 63 64 65 65 66 66 66 67 67 67 66 66 65 65 64 64 63 63 63 63 64 64 63 63 62 61 61 62 45 34 33 32 64 65 65 66 67 67 68 68 68 69 68 68 68 68 66 64 64 64 63 63 63 63 64 64 64 64 65 66 67 69 68 68 68 67 67 67 67 66 66 66 66 66 66 66 66 66 66 65 65 64 65 65 65 65 67 66 68 68 68 69 69 69 69 69 69 70 70 70 70 70 70 71 71 71 71 71 70 70 70 70 70 69 69 69 69 69 69 69 70 70 69 69 69 68 69 69 69 69 69 69 69 70 70 70 71 71 71 72 72 72 71 70 69 68 68 67 66 66 66 67 67 67 67 67 68 68 68 69 69 70 70 70 70 70 71 72 72 74 74 75 75 75 74 73 72 72 72 72 73 74 74 73 73 73 72 72 72 71 71 71 71 71 70 70 69 69 68 68 68 68 68 69 69 69 69 70 70 70 71 71 71 72 72
56 56 56 56 56 56 56 57 57 57 57 58 59 60 60 60 60 60 60 60 60 60 60 60 60 60 60 59 58 57 57 57 57 57 58 59 60 61 61 62 62 63 64 64 65 66 66 67 67 67 67 67 66 65 65 64 64 64 64 64 64 64 64 64 63 62 62 62 62 45 33 33 63 64 65 65 66 67 67 68 68 68 69 69 68 68 68 66 64 64 63 63 63 63 63 64 64 64 64 65 66 67 68 68 68 67 67 67 66 66 66 66 65 65 65 65 65 66 66 65 65 65 64 65 65 65 65 66 66 68 68 68 69 69 69 69 69 70 70 70 70 70 70 71 71 71 71 71 71 71 71 70 70 70 70 70 70 69 69 70 70 70 70 70 70 69 69 69 69 69 69 70 70 70 70 70 71 71 71 72 72 72 73 71 70 69 68 67 67 66 66 66 67 67 68 67 67 68 68 68 69 69 70 70 70 70 70 71 72 72 74 75 75 75 75 74 73 72 72 72 72 73 74 74 73 73 73 72 72 72 71 71 71 71 71 70 69 69 68 68 68 68 68 68 69 69 69 69 70 70 70 70 71 71 72 72
56 56 56 56 56 56 56 57 57 57 57 58 58 59 60 60 60 60 60 60 60 60 60 60 59 59 59 58 57 57 56 56 57 57 57 58 59 60 61 61 62 63 64 64 65 66 66 67 67 67 67 67 66 66 65 65 64 64 64 64 64 64 64 64 63 63 62 62 62 45 45 33 63 64 65 65 66 66 67 68 68 68 69 68 68 68 68 66 65 64 63 63 63 64 64 64 64 64 65 65 66 67 68 68 68 67 67 67 66 66 66 66 66 65 65 66 66 66 66 66 65 65 65 65 65 65 65 66 66 66 69 69 69 69 69 70 70 70 70 70 70 71 71 71 71 71 71 71 71 71 71 71 70 70 70 70 70 70 70 70 70 70 70 70 70 70 70 70 70 70 70 70 70 70 70 71 71 71 72 72 72 73 73 72 71 70 69 69 68 68 68 68 68 69 69 69 69 69 69 69 69 70 70 70 70 70 70 71 71 72 72 73 73 74 74 73 72 72 71 72 72 72 72 72 72 72 72 71 71 71 70 70 70 70 70 69 69 68 68 68 68 68 68 68 69 69 69 69 70 70 70 70 71 71 72 72
56 56 56 56 56 56 56 57 57 57 57 57 58 58 59 59 59 60 60 60 60 60 60 59 59 58 57 57 56 56 56 56 56 56 57 58 59 59 60 61 62 63 63 64 65 66 66 67 67 67 67 67 66 66 65 65 65 65 65 65 64 64 64 64 63 63 62 62 62 62 45 63 64 64 64 65 66 66 67 67 68 68 68 68 68 68 68 66 65 64 63 63 64 64 64 64 65 65 66 66 67 67 68 68 67 67 67 66 66 66 66 66 66 66 66 66 66 66 66 66 66 65 65 65 66 65 65 66 66 69 69 69 69 69 70 70 70 70 70 71 71 71 71 71 71 71 71 71 71 71 71 71 71 71 71 70 70 70 70 70 70 70 70 70 70 70 70 70 70 70 70 70 70 71 71 71 71 72 72 72 73 73 73 72 71 71 70 70 70 70 70 70 70 70 70 70 70 69 69 69 70 70 70 70 70 70 70 71 71 71 72 72 72 72 73 72 72 71 71 71 71 71 71 71 71 71 71 70 70 70 70 69 69 69 69 69 68 68 68 68 68 68 68 68 69 69 69 69 70 70 70 70 71 71 72 72
56 56 56 56 56 56 56 56 57 57 57 57 57 58 58 58 59 59 60 60 59 59 59 59 58 57 56 56 56 56 56 56 56 56 56 57 58 59 59 60 61 62 63 64 64 65 67 67 67 67 67 67 67 66 66 66 66 66 66 65 65 65 64 64 63 63 62 62 62 62 62 63 64 64 64 65 66 66 67 67 68 68 68 68 68 68 68 67 65 64 63 63 64 64 64 65 65 66 67 67 67 67 67 67 67 67 66 66 66 66 66 66 66 66 66 66 66 66 66 66 67 66 66 66 67 65 66 67 66 69 69 69 69 70 70 70 70 70 71 71 71 71 71 71 71 71 71 71 71 71 71 71 71 71 71 71 71 71 71 71 71 71 71 71 71 71 70 71 71 71 71 71 71 71 71 71 72 72 73 73 73 73 74 73 72 72 71 71 71 72 72 72 72 72 71 71 71 70 70 70 70 70 70 70 70 70 70 70 71 71 71 71 71 72 72 72 71 71 71 71 71 70 70 70 70 69 69 69 69 70 70 68 68 68 68 68 68 68 68 68 68 68 68 68 69 69 69 69 70 70 70 70 71 71 72 72
56 56 56 56 56 56 56 56 56 57 57 57 57 57 57 57 58 59 59 59 59 59 59 58 57 56 56 56 56 56 56 56 56 56 56 56 57 58 58 60 61 62 63 64 64 65 67 67 67 67 67 67 67 67 66 66 66 67 67 66 65 65 64 64 63 63 62 62 62 63 63 63 64 64 64 65 66 66 67 67 68 68 68 68 68 68 68 67 65 64 63 64 64 64 64 65 66 67 68 68 67 67 67 67 67 66 66 66 66 66 66 66 66 66 66 66 66 66 67 67 67 66 66 67 67 68 68 68 69 69 69 70 70 70 70 70 71 71 71 71 71 71 71 71 71 72 72 72 72 71 71 71 72 72 72 71 71 71 71 71 71 71 71 71 71 71 71 71 71 71 71 71 71 71 71 72 72 73 73 73 74 74 74 73 73 73 72 73 73 74 75 74 74 74 74 72 72 71 71 71 70 70 70 70 70 70 70 70 70 70 70 70 71 71 71 71 71 70 70 70 70 70 69 69 68 68 67 67 67 67 67 67 67 67 67 67 67 67 67 68 68 68 68 68 69 69 69 69 70 70 70 70 71 71 72 72
57 57 57 57 57 57 57 57 58 58 58 57 57 57 57 57 58 58 59 58 58 58 58 57 57 56 56 56 56 56 56 56 56 56 56 56 57 58 58 59 61 62 63 64 64 65 66 67 67 67 67 67 66 66 66 65 65 65 65 65 64 64 64 64 63 63 62 63 63 63 63 63 64 64 64 65 66 66 67 67 68 68 68 68 68 68 68 67 66 64 64 64 64 65 65 66 66 67 68 68 67 67 67 67 67 66 66 66 66 66 66 66 66 66 66 66 66 66 67 67 67 67 67 67 67 68 68 68 69 69 70 70 70 70 70 71 71 71 71 71 72 72 72 72 72 72 72 72 72 72 72 72 72 72 72 72 72 72 71 71 71 71 71 71 71 71 71 71 71 71 71 72 72 72 72 72 73 73 74 74 74 74 74 74 73 73 72 73 73 74 74 74 74 73 73 72 72 71 71 70 70 70 70 70 70 70 70 70 70 70 70 70 70 70 71 70 70 70 70 69 69 69 69 69 68 68 67 67 67 67 67 67 67 67 67 67 67 67 68 68 68 68 68 68 69 69 69 70 70 70 70 71 71 71 72 72
58 58 58 58 58 58 58 58 58 58 59 58 58 57 57 57 57 58 58 58 58 57 57 57 56 56 56 56 56 56 56 56 56 56 56 56 57 57 58 59 61 62 63 64 64 65 66 66 66 66 67 66 66 65 65 64 64 64 64 64 64 64 63 63 63 63 62 63 63 63 64 64 64 64 64 65 66 66 67 67 68 68 68 68 68 68 68 67 66 65 64 65 65 66 66 66 67 67 68 68 67 67 67 67 67 66 66 66 66 66 66 66 66 66 66 66 66 66 67 67 67 67 67 67 68 68 68 69 69 70 70 70 70 71 71 71 71 72 72 72 72 72 72 72 72 72 72 72 72 72 72 72 72 72 72 72 72 72 72 72 72 72 72 72 72 72 72 72 72 72 72 72 72 72 72 73 73 74 74 74 74 75 75 74 73 73 72 73 73 73 74 74 73 72 72 72 71 71 70 70 70 70 70 70 70 70 70 70 70 70 70 70 70 70 70 70 69 69 69 69 69 68 68 68 68 68 67 67 67 67 67 67 67 67 67 67 67 67 68 68 68 68 68 69 69 69 69 70 70 70 71 71 71 71 72 72
