70 70 70 70 70 70 70 70 70 70 69 69 69 69 69 69 69 69 69 69 70 70 70 70 71 71 71 70 70 70 70 69 69 69 69 69 69 68 68 68 68 68 68 68 68 68 68 68 68 68 68 68 68 68 68 69 69 69 69 69
70 70 70 70 70 69 69 69 69 69 69 69 69 69 69 69 69 69 69 69 70 70 70 70 70 71 70 70 70 70 70 70 69 69 69 69 69 69 68 68 68 68 68 68 68 68 68 68 68 68 68 68 68 68 68 69 69 69 69 69
70 70 70 70 69 69 69 69 69 69 69 69 69 69 69 69 69 69 69 69 70 70 70 70 70 70 70 70 70 70 70 70 69 69 69 69 69 69 69 68 68 68 68 68 68 68 68 68 68 68 68 68 68 68 68 69 69 69 69 69
70 70 70 69 69 69 69 69 69 69 69 69 69 69 69 69 69 69 69 69 70 70 70 70 70 70 70 70 70 70 70 70 70 69 69 69 69 69 69 69 68 68 68 68 68 68 68 68 68 68 68 68 68 68 68 68 69 69 69 69
70 70 69 69 69 69 69 69 69 69 69 69 69 69 69 69 69 69 69 69 70 70 70 70 70 70 70 70 70 70 70 70 70 70 69 69 69 69 69 69 68 68 68 68 68 68 68 68 68 68 68 68 68 68 68 68 69 69 69 69
70 70 69 69 69 69 69 69 69 69 69 69 69 69 69 69 69 69 69 70 70 70 70 70 70 70 70 70 70 70 70 70 70 70 70 69 69 69 69 69 68 68 68 68 68 68 68 68 68 68 68 68 68 68 68 68 69 69 69 69
70 70 69 69 69 69 69 69 69 68 69 69 69 69 69 69 69 69 70 70 70 70 70 70 70 70 70 70 70 70 70 70 70 70 70 69 69 69 69 69 69 68 68 68 68 68 68 68 68 68 68 68 68 68 68 68 68 69 69 69
70 70 69 69 69 69 69 69 68 68 68 68 68 69 69 69 69 70 70 70 70 70 70 70 70 70 70 70 70 70 70 70 70 70 70 70 69 69 69 69 69 68 68 68 68 68 68 68 68 68 68 68 68 68 68 68 68 68 69 69
70 69 69 69 69 69 69 68 68 68 68 68 68 69 69 69 70 70 70 70 70 70 70 70 70 70 70 70 70 70 70 70 70 70 70 70 70 69 69 69 69 69 68 68 68 68 68 68 68 68 68 68 68 68 68 68 68 68 68 69
69 69 69 69 69 69 68 68 68 68 68 68 69 69 69 69 70 70 70 70 70 70 70 70 70 70 70 70 70 70 70 70 70 70 70 70 70 69 69 69 69 69 69 69 68 68 68 68 68 68 68 68 68 68 68 68 68 68 68 69
69 69 69 69 69 68 68 68 68 68 68 69 69 69 69 69 70 70 70 70 70 70 70 71 71 71 70 70 70 70 70 70 70 70 70 70 70 70 69 69 69 69 69 69 68 68 68 68 68 68 68 68 68 68 68 68 68 68 68 69
69 69 69 69 68 68 68 68 68 68 68 69 69 69 69 69 70 70 70 70 70 71 71 71 71 71 71 71 71 71 70 70 70 70 70 70 70 70 70 69 69 69 69 69 69 68 68 68 68 68 68 68 68 68 68 68 68 68 68 69
69 69 69 68 68 68 68 68 68 68 69 69 69 69 69 70 70 70 70 70 70 71 71 71 71 71 71 71 71 71 71 70 70 70 70 70 70 70 70 70 70 69 69 69 69 68 68 68 68 68 68 68 68 68 68 68 68 68 68 69
69 69 69 69 68 68 68 68 68 69 69 69 69 69 69 70 70 70 70 70 71 71 71 71 71 71 71 71 71 71 71 70 70 70 70 70 70 70 70 70 70 70 69 69 69 68 68 68 68 68 68 68 68 68 68 68 68 68 68 69
69 69 69 69 69 68 68 69 69 69 69 69 69 70 70 70 70 70 70 71 71 71 71 71 71 71 71 71 71 71 71 71 70 70 70 70 70 70 70 70 70 70 69 69 69 69 68 68 68 68 68 68 68 68 68 68 68 68 68 69
69 69 69 69 69 69 69 69 69 69 69 69 70 70 70 70 70 70 71 71 71 71 71 71 71 71 71 71 71 71 71 71 71 70 70 70 70 70 70 70 70 70 69 69 69 69 69 68 68 68 68 68 68 68 68 68 68 68 68 68
69 69 69 69 69 69 69 69 69 69 69 70 70 70 68 67 68 71 71 71 71 71 71 71 71 71 71 71 71 71 71 71 71 71 70 70 70 70 70 70 70 70 69 69 69 69 69 68 68 68 68 68 68 68 68 68 68 68 68 68
69 69 69 69 69 69 69 69 69 69 69 67 67 70 67 67 71 71 71 71 71 71 71 71 71 71 71 71 71 71 71 71 71 71 71 70 70 70 70 70 70 70 70 69 69 69 69 69 68 68 68 68 68 68 68 68 68 68 68 68
69 69 69 69 69 69 69 69 69 69 67 66 66 67 67 67 67 71 71 71 71 71 71 71 71 71 71 71 71 71 71 71 71 71 71 71 71 70 70 70 70 70 70 69 69 69 69 69 69 68 68 68 68 68 68 68 68 68 68 69
69 69 69 69 69 69 69 69 69 68 67 66 66 66 67 66 67 67 67 71 71 71 71 71 71 71 71 71 71 71 71 71 71 71 71 71 71 71 70 70 70 70 70 69 69 69 69 69 69 69 69 68 68 68 68 67 67 67 68 69
69 69 69 70 70 70 70 70 70 68 66 66 66 66 67 66 66 66 67 67 71 72 72 72 72 72 72 71 71 71 71 71 71 71 71 71 71 71 71 70 70 70 70 70 69 69 69 69 69 69 67 67 67 68 66 66 66 66 67 69
69 69 70 70 70 70 70 70 70 69 67 66 66 66 67 66 66 67 72 72 72 72 72 72 72 72 72 72 72 71 71 71 71 71 71 71 71 71 71 70 70 70 70 70 69 69 69 69 69 68 67 66 67 67 66 66 66 66 66 67
67 67 66 67 67 70 70 70 70 70 67 66 66 67 67 67 72 72 72 72 72 72 72 72 72 72 72 72 72 72 71 71 71 71 71 71 71 71 71 70 70 70 70 70 69 69 69 69 69 67 67 66 67 66 66 65 65 66 66 67
66 66 66 66 67 70 70 70 71 71 71 67 67 71 71 72 72 72 72 72 72 72 72 72 72 72 72 72 72 72 72 71 71 71 71 71 71 71 71 70 70 70 70 70 69 69 69 69 69 67 67 66 67 66 66 65 65 66 66 67
66 66 66 66 67 70 70 71 71 71 71 71 72 72 72 72 72 72 72 72 72 73 73 72 72 72 72 72 72 72 72 72 71 71 71 71 71 71 71 70 70 70 70 70 69 69 69 69 69 67 67 66 67 67 66 66 65 66 66 67
66 66 66 66 67 70 71 71 71 71 71 72 72 72 72 72 72 72 72 72 73 73 73 73 73 73 72 72 72 72 72 72 72 71 71 71 71 71 71 70 70 70 70 70 69 69 69 69 69 68 67 66 67 67 66 66 66 66 66 69
66 66 66 66 71 71 71 71 71 71 72 72 72 72 72 72 72 72 72 73 73 74 74 73 73 73 73 72 72 72 72 72 72 72 72 71 71 71 71 71 70 70 70 70 70 69 69 69 69 69 67 67 67 69 67 66 66 66 66 67
66 66 71 71 71 71 71 71 71 72 72 72 72 72 72 72 72 72 72 73 74 74 74 74 74 74 73 73 72 72 72 72 72 72 72 71 71 71 71 71 70 70 70 70 70 70 69 69 69 69 69 67 69 67 66 66 65 66 66 66
66 71 71 65 71 71 71 71 72 72 72 72 72 72 72 72 72 72 72 73 74 75 75 75 74 74 74 73 73 72 72 72 72 72 72 72 71 71 71 71 71 70 70 70 70 70 69 69 69 69 69 69 69 69 67 66 66 66 67 68
71 71 71 71 71 71 72 72 72 72 72 72 72 72 72 72 72 72 72 73 74 75 75 75 75 75 75 74 73 73 72 72 72 72 72 72 72 71 71 71 71 70 70 70 70 70 69 69 69 69 69 69 69 69 69 69 69 69 69 69
71 72 72 72 72 72 72 72 72 72 72 72 72 72 72 72 72 72 73 73 74 74 75 75 76 76 75 75 74 73 72 72 72 72 72 72 72 72 71 71 71 70 70 70 70 70 69 69 69 69 69 69 69 69 69 69 69 69 69 69
72 72 72 72 72 72 72 72 72 72 72 72 72 72 72 72 72 72 73 73 74 74 75 75 76 77 76 75 74 73 73 72 72 72 72 72 72 72 71 71 71 71 70 70 70 70 69 69 69 69 69 69 69 69 69 69 69 69 69 69
72 73 72 72 72 72 72 72 72 72 72 72 72 72 72 72 72 72 73 73 74 74 75 76 77 77 76 75 74 73 73 73 72 72 72 72 72 72 72 71 71 71 70 70 70 70 69 69 69 69 69 69 69 69 69 69 69 69 69 69
72 73 73 73 73 73 73 72 72 72 72 72 72 72 72 73 74 74 75 75 75 76 76 77 78 78 77 76 75 74 74 74 73 73 72 72 72 72 72 71 71 71 70 70 70 70 70 69 69 69 69 69 69 69 69 69 69 69 69 69
72 74 74 74 74 74 73 73 73 73 73 73 73 73 73 74 75 76 76 77 77 77 78 78 78 79 78 77 76 75 75 74 74 73 73 72 72 72 72 72 71 71 71 70 70 70 70 69 69 69 69 69 69 69 69 69 69 69 70 70
72 74 74 74 74 74 74 74 74 74 74 74 73 73 75 76 77 78 78 79 79 79 79 79 79 79 79 78 78 77 76 76 75 74 74 73 73 72 72 72 71 71 71 70 70 70 70 70 69 69 69 69 69 69 69 69 69 70 70 70
73 75 75 75 75 75 75 75 75 75 75 75 74 74 76 78 79 80 80 81 81 81 81 81 80 80 80 79 79 78 78 77 76 75 75 74 74 73 72 72 72 71 71 71 70 70 70 70 70 69 69 69 69 69 69 69 70 70 70 70
72 74 74 74 74 74 75 75 76 76 76 76 76 76 78 79 80 81 82 82 82 82 82 81 81 80 80 80 80 79 78 78 77 76 76 75 75 74 73 72 72 72 71 71 71 70 70 70 70 70 69 69 69 69 69 70 70 70 70 70
72 73 73 74 74 74 75 75 76 77 77 78 78 78 80 81 82 83 83 83 83 83 82 82 81 81 81 80 80 80 79 79 78 77 77 76 76 75 74 73 73 72 72 71 71 71 70 70 70 70 70 70 70 69 70 70 70 70 70 70
72 73 73 73 73 73 74 75 77 78 79 79 80 81 82 82 83 84 84 84 83 83 83 82 82 81 81 81 81 81 80 80 79 79 78 78 77 77 76 75 74 74 72 72 71 71 71 71 70 70 70 70 70 70 70 70 70 70 70 70
72 72 72 73 73 73 74 75 77 79 80 81 82 83 83 84 84 85 85 84 84 84 83 83 78 78 82 82 82 81 81 81 80 80 79 79 78 78 77 76 76 75 74 73 72 71 71 71 71 70 70 70 70 70 70 70 70 70 70 70
72 72 72 73 73 73 74 75 77 79 80 81 82 83 83 84 85 86 85 85 84 84 84 83 83 77 82 82 82 82 82 81 81 81 81 80 80 80 79 78 77 77 75 74 73 72 72 71 71 71 71 70 70 70 70 70 70 70 70 70
72 72 72 73 73 73 74 75 77 80 80 81 82 83 84 84 85 86 85 85 85 85 84 84 83 83 83 83 83 82 82 82 82 82 82 82 81 81 80 79 78 78 76 75 74 74 73 72 72 71 71 71 70 70 70 70 70 70 70 71
72 72 73 73 73 73 74 75 77 80 80 81 82 83 84 85 85 86 86 85 85 85 85 84 84 84 83 83 83 83 83 83 83 83 83 83 83 83 81 81 80 79 78 77 76 75 74 73 72 71 71 71 71 67 71 70 70 70 71 71
72 72 73 73 73 73 74 75 77 80 81 81 82 84 84 85 85 86 86 86 86 85 85 85 84 84 84 84 83 83 83 84 84 84 84 84 84 84 83 82 81 80 79 79 78 77 75 74 73 72 72 71 65 67 67 70 71 71 71 71
72 72 73 73 73 73 74 75 76 78 79 80 82 83 84 84 85 86 86 85 85 85 85 85 84 84 84 84 84 84 84 84 84 85 85 85 85 85 83 82 80 79 78 78 78 78 76 74 73 72 72 72 67 67 68 69 71 71 71 71
72 73 73 73 73 73 74 75 76 77 78 80 81 83 83 84 85 85 85 85 85 85 85 85 84 84 84 84 84 84 84 85 85 85 85 86 86 86 84 82 79 77 78 78 78 78 76 75 74 73 73 72 68 68 69 70 71 71 71 71
73 73 73 73 73 73 74 74 75 76 77 79 81 82 83 84 84 85 85 85 85 85 85 84 84 84 84 84 84 85 85 85 86 86 86 86 87 87 85 81 78 76 77 77 78 78 77 76 75 74 73 73 72 70 70 70 71 71 71 71
73 73 73 73 73 73 74 74 75 75 77 78 80 82 83 83 84 85 85 85 85 85 85 84 84 84 84 85 85 85 85 86 86 86 87 87 87 88 86 81 77 75 76 77 78 79 77 76 75 74 74 73 73 72 72 72 72 71 71 71
73 73 73 73 73 74 74 74 75 75 76 77 79 81 81 82 83 84 84 84 85 85 85 84 84 84 85 85 85 85 86 86 87 87 87 88 88 89 87 83 78 75 76 76 77 77 76 75 74 74 74 73 73 73 73 72 72 72 72 72
73 73 73 74 74 74 74 74 75 75 76 77 78 79 80 81 82 84 84 84 84 85 85 85 84 84 85 85 86 86 86 87 87 88 88 88 89 89 89 85 78 75 75 75 74 74 74 74 74 74 73 73 73 73 73 73 72 72 72 72
74 74 74 74 74 74 74 75 75 75 76 76 77 78 79 80 82 83 84 84 84 85 85 85 85 85 85 86 86 87 87 87 88 88 89 89 89 90 89 87 78 75 74 72 72 72 72 72 73 73 73 73 74 74 73 73 73 73 72 72
74 74 74 74 74 74 74 75 75 75 76 76 77 77 78 79 81 83 83 84 84 85 85 85 85 85 85 86 87 87 88 88 88 89 89 90 90 90 89 89 79 75 73 72 71 71 71 72 72 73 73 74 74 74 74 73 73 73 72 72
74 74 74 74 74 74 75 75 75 75 76 76 76 77 78 79 81 83 83 84 84 85 85 85 85 85 86 86 87 87 88 88 88 89 89 90 90 90 89 83 78 75 73 72 71 71 71 71 72 72 73 73 74 74 74 74 74 73 73 72
74 74 74 74 74 74 75 75 75 75 76 76 76 77 78 79 81 83 83 84 85 85 85 86 86 86 86 87 87 87 88 88 88 89 89 90 90 91 88 80 77 75 73 72 71 70 71 71 72 72 72 73 74 75 74 74 74 74 73 73
75 75 75 75 75 75 75 75 75 75 75 76 76 77 78 79 81 83 84 84 85 85 86 86 86 87 87 87 87 87 88 88 88 89 89 90 90 91 87 79 77 75 73 72 71 70 71 71 71 72 72 73 74 75 75 74 74 74 74 74
75 75 75 75 75 75 75 75 75 75 75 76 76 71 78 79 81 83 84 84 85 86 86 87 87 88 88 88 87 87 88 88 88 89 89 90 90 91 86 79 76 74 73 72 71 70 71 71 71 71 72 72 74 75 75 75 74 74 74 74
75 75 75 75 75 75 75 75 75 75 75 76 71 71 78 79 81 83 84 85 86 86 87 87 88 88 88 88 88 88 88 88 89 89 89 90 90 91 85 78 75 73 72 71 71 70 71 71 71 71 71 72 73 74 74 74 74 74 74 74
75 75 75 75 75 74 75 75 75 75 75 76 71 71 78 79 81 84 84 85 86 87 88 88 89 90 89 89 88 88 88 89 89 89 90 90 90 91 84 78 74 72 72 71 71 71 71 71 71 71 71 71 72 73 73 74 74 75 74 74
75 75 75 75 74 74 74 75 75 75 75 76 76 72 78 79 81 84 85 86 87 88 88 89 90 91 90 90 89 89 89 89 89 89 90 90 91 91 84 76 72 71 71 71 71 71 71 70 70 70 71 71 72 72 73 73 74 75 75 75
75 75 75 75 74 74 74 74 75 75 75 75 76 76 78 79 82 84 85 86 87 88 89 90 91 92 91 91 90 90 90 90 90 90 90 90 91 91 83 75 72 71 71 71 71 71 70 70 70 70 70 71 71 72 72 73 74 75 75 75
75 75 75 75 74 74 74 74 75 75 75 75 76 76 78 80 82 85 86 87 88 89 90 91 92 93 92 91 91 90 90 90 90 90 90 90 90 91 83 75 72 71 71 71 71 71 70 70 70 70 70 71 71 71 72 72 74 75 75 75
73 75 75 74 74 74 74 75 75 75 75 76 76 76 78 80 82 85 86 87 88 90 91 91 92 93 92 91 91 91 90 90 90 90 90 90 90 90 83 75 72 71 71 71 71 71 70 70 70 70 70 71 71 71 72 72 74 75 75 75
73 75 75 74 74 74 74 75 75 75 75 76 76 76 78 80 82 85 86 87 88 91 91 92 93 94 93 92 91 91 91 90 90 90 90 90 90 90 83 75 72 71 71 71 71 70 70 70 70 70 70 70 71 71 72 72 74 75 75 75
73 73 75 74 74 74 74 75 75 75 75 76 76 76 78 80 82 86 87 88 89 91 92 93 93 94 93 92 92 91 91 91 91 90 90 90 90 90 82 74 72 71 71 71 70 70 70 70 70 70 70 70 71 71 71 72 74 75 75 75
73 73 75 75 74 74 75 75 75 75 76 76 76 77 79 80 83 86 87 88 90 92 93 94 94 95 94 93 92 91 91 91 91 91 89 88 87 86 81 73 72 71 71 70 70 70 70 70 70 70 70 70 70 71 71 72 73 75 75 75
73 73 75 75 75 75 75 75 75 75 76 76 77 77 79 81 84 87 88 89 91 93 94 94 95 96 94 93 92 92 91 91 91 91 88 86 85 84 79 72 71 71 70 70 70 70 70 70 70 70 70 70 70 70 71 72 72 74 74 74
72 72 73 75 75 75 75 75 75 76 76 77 77 78 80 82 84 88 89 90 92 94 94 95 96 96 95 94 93 92 92 91 91 91 87 85 84 83 77 72 71 70 70 70 70 70 70 70 70 70 70 70 70 70 71 71 72 73 73 74
72 72 72 75 75 75 75 75 76 76 77 77 78 79 80 82 85 88 90 91 93 94 95 95 96 97 95 94 93 92 92 92 91 91 87 85 83 82 75 72 71 70 70 70 70 70 70 70 70 70 70 70 70 70 71 71 72 72 73 73
72 72 72 75 75 75 75 76 76 76 77 78 79 80 81 83 86 89 90 92 93 95 96 96 96 97 95 94 93 92 92 91 91 91 87 84 82 80 72 72 71 70 70 70 70 70 70 70 70 70 70 70 70 70 70 71 71 72 72 72
72 72 72 75 75 75 76 76 76 77 78 79 80 81 83 85 87 90 91 92 94 96 96 96 97 97 96 94 93 93 92 91 91 90 87 83 79 75 72 71 71 70 70 70 70 70 70 70 70 70 70 70 70 70 70 71 71 71 72 72
72 72 72 75 75 76 76 76 77 77 78 80 81 83 84 86 88 90 92 93 95 97 97 97 97 97 96 94 93 93 92 91 91 90 87 81 75 72 72 71 71 70 70 70 70 69 69 69 69 69 69 70 70 70 70 70 70 71 71 72
73 72 73 75 75 76 76 77 77 78 79 81 83 85 86 88 89 91 92 94 96 97 97 97 97 97 96 95 94 93 92 91 91 90 87 78 72 72 71 71 71 70 70 70 69 69 69 69 69 69 69 69 70 70 70 70 70 70 71 71
73 73 73 75 76 76 76 77 78 78 80 81 83 85 86 88 89 91 92 94 95 97 97 97 97 97 96 95 94 93 91 90 89 88 84 78 73 72 71 71 71 70 70 70 69 69 69 69 69 69 69 69 70 70 70 70 70 70 71 71
73 73 73 75 76 76 77 77 78 80 81 82 84 85 86 87 89 91 92 94 95 97 97 97 97 97 96 94 94 93 91 89 88 86 83 77 73 72 71 71 71 70 70 70 69 69 69 69 69 69 69 69 70 69 69 70 70 70 71 71
73 73 73 75 76 76 77 78 79 81 82 83 84 85 86 87 89 90 92 93 95 97 97 97 97 97 96 94 93 93 90 88 86 85 81 77 73 72 71 71 71 70 70 70 69 69 69 69 69 69 69 69 69 69 69 70 70 70 71 71
73 73 73 75 76 76 77 78 80 82 83 84 84 86 86 87 88 90 92 93 95 97 97 97 97 97 95 94 93 93 89 87 85 83 80 77 73 72 71 71 71 70 70 70 70 69 69 69 69 69 69 69 69 69 69 70 70 70 71 71
73 73 73 75 76 76 77 78 79 81 82 82 84 85 86 87 88 89 90 92 94 95 95 95 95 95 94 93 93 92 89 86 84 83 80 77 73 72 71 71 71 70 70 70 70 69 69 69 69 69 69 69 69 69 69 70 70 70 71 71
73 73 73 75 75 76 76 77 78 79 80 81 83 84 85 86 87 88 89 91 92 94 94 94 94 94 93 93 92 91 88 86 84 82 80 77 73 72 71 71 70 70 70 70 70 70 70 70 70 70 70 69 69 69 70 70 70 70 71 71
73 73 74 75 75 76 76 77 77 78 79 81 82 84 85 86 87 88 88 90 91 92 93 93 93 93 92 92 91 91 88 85 84 82 80 77 72 72 71 71 70 70 70 70 70 70 70 70 70 70 70 69 69 69 69 70 70 70 71 71
73 73 75 75 75 76 76 76 77 77 78 80 81 83 84 85 86 87 88 89 90 91 91 92 92 92 92 91 91 90 87 85 83 82 80 77 72 71 71 71 70 70 70 70 70 70 70 70 70 70 70 69 69 68 68 70 70 70 71 71
75 74 75 75 75 76 76 76 76 77 77 78 80 81 82 83 83 84 85 85 86 87 88 88 89 90 90 89 89 89 86 84 83 81 79 76 72 71 71 71 70 70 70 70 70 70 70 70 70 70 70 70 68 68 68 68 70 70 71 71
74 74 74 75 75 75 76 76 76 76 77 78 78 79 80 80 81 82 82 83 84 84 85 86 87 88 88 88 88 87 85 84 82 81 78 74 72 71 71 71 70 70 70 70 70 70 70 70 70 70 70 70 69 68 68 68 70 70 71 71
73 73 74 74 75 75 76 76 76 76 76 77 77 78 78 79 80 80 81 81 82 82 83 84 86 87 87 87 86 86 84 83 82 80 77 73 72 71 71 71 70 70 70 70 70 70 70 70 70 70 70 70 70 69 68 70 70 70 70 71
72 72 73 74 75 75 75 75 76 76 76 76 76 76 77 78 78 79 79 80 80 81 82 83 84 86 86 85 85 85 84 82 81 80 76 72 72 71 71 71 70 70 70 70 70 70 70 70 70 70 70 70 70 70 70 70 70 70 70 71
72 72 72 73 73 74 74 74 74 74 75 75 75 76 76 77 78 78 79 79 79 80 81 81 82 83 83 83 83 83 82 81 80 79 77 73 72 71 71 71 70 70 70 70 70 70 70 70 70 70 70 70 70 70 70 70 70 70 71 71
72 72 72 72 73 73 73 73 73 73 73 74 75 75 76 76 77 78 78 78 79 79 80 80 81 81 81 81 81 81 81 80 80 79 77 75 72 71 71 71 71 70 70 70 70 71 71 71 70 70 70 70 70 70 70 70 70 70 71 71
72 71 72 72 72 73 72 72 72 72 72 73 74 75 75 76 76 77 77 78 78 78 79 79 79 80 80 80 80 80 80 79 79 79 78 76 73 72 71 71 71 70 70 71 71 71 71 71 71 70 70 70 70 70 70 70 70 70 71 71
72 71 71 72 72 72 72 72 72 71 72 73 74 75 75 75 76 76 77 77 77 78 78 78 78 78 78 78 78 79 79 79 79 79 78 77 75 72 72 71 71 70 70 71 71 71 71 71 71 71 70 70 70 70 70 70 70 70 71 71
71 71 71 71 72 72 72 72 71 71 72 72 73 73 74 74 75 76 76 76 77 77 77 77 77 78 78 78 78 78 78 78 78 78 78 77 76 72 72 71 71 71 71 71 71 71 71 71 71 71 71 71 70 70 70 70 70 70 71 71
71 71 71 71 72 72 71 71 71 71 71 72 72 72 73 73 74 75 75 76 76 77 77 77 77 77 77 77 78 78 78 78 78 78 78 77 76 74 72 72 71 71 71 71 71 71 71 71 71 71 71 71 71 71 70 70 70 70 71 71
71 71 71 71 71 71 71 71 71 71 71 71 71 71 72 72 73 74 75 75 76 76 76 77 77 77 77 77 77 77 77 78 78 78 77 77 76 75 72 72 71 71 71 71 71 71 71 71 71 71 71 71 71 71 71 71 70 70 71 71
71 71 71 71 71 71 71 71 71 70 70 70 71 71 71 72 73 74 74 75 75 76 76 76 76 76 76 77 77 77 77 77 77 78 77 77 76 76 73 72 71 71 71 71 71 71 71 71 71 71 71 71 71 71 71 71 71 70 71 71
71 71 71 71 71 71 71 71 71 70 71 71 71 71 71 72 72 73 74 74 75 75 75 75 76 76 76 76 77 77 77 77 77 77 77 76 76 75 73 72 72 71 71 71 71 71 71 71 71 71 71 71 71 71 71 71 71 71 71 71
71 71 71 71 71 71 71 71 71 71 71 71 71 71 71 72 72 73 73 73 74 74 75 75 75 75 76 76 76 77 76 76 76 76 76 75 75 74 73 72 72 72 72 72 71 71 71 71 71 72 71 71 71 71 71 72 72 72 72 72
