-1 -1 -1 -1 -1 -1 -1 -1 -1 -1 -1 -1 -1 -1 -1 -1 -1 -1 -1 -1 -1 -1 -1 -1 -1 -1 63 63 63 63 64 64 64 64 65 66 66 66 66 66 66 66 66 66 66 66 66 66 66 66 66 65 65 65 65 64 66 68 70 71 71 71 71 70 70 70 70 69 69 69 69 68 68 68 67 67 67 67 67 66 66 66 66 66 67 67 67 67 67 67 67 67 68 68 68 68 68 68 68 69 69 69 69 69 70 70 71 72 72 72 72 73 72 72 72 72 71 70 69 68 69 69 70 70 71 71 72 72 72 72 72 72 72 72 72 72 72 72 72 72 72 72 72 71 71 71 71 71 71 71 71 71 71 71 71 71 71 71 71 70 70 70 70 70 69 69 69 69 69 68 68 68 68 68 68 68 68 68 68 68 68 68 68 68 68 68 68 68 68 68 68 68 68 68 68 68 68 68 68 68 68 68 68 68 68 68 68 68 67 67 67 66 66 66 66 66 66 66 66 66 65 65 65 64 64 64 65 64 65 65 65 65 65 65 65 64 64 64 64 64 64 64 64 64 64 64 64 64 64 63 63 63 -1 -1 -1 -1
63 -1 -1 -1 -1 -1 -1 -1 -1 -1 -1 -1 -1 -1 -1 -1 -1 -1 -1 -1 -1 -1 -1 -1 -1 -1 -1 63 63 63 64 64 64 64 65 66 66 66 66 66 66 66 66 66 66 66 66 66 66 66 65 65 65 65 64 64 66 68 70 71 71 71 71 71 70 70 70 70 69 69 69 69 68 68 68 67 67 67 67 67 67 67 67 67 67 67 67 67 67 67 67 67 68 68 68 68 68 68 68 68 69 69 69 69 69 70 70 71 71 72 72 72 72 72 71 71 70 69 69 68 69 69 70 70 70 71 71 72 72 72 72 72 72 72 72 72 72 72 72 72 72 72 72 71 71 71 71 71 71 71 71 71 71 71 71 71 71 71 71 71 70 70 70 70 70 69 69 69 69 69 68 68 68 68 68 68 68 68 68 68 68 68 68 68 68 68 68 68 68 68 68 68 68 68 68 68 68 68 68 68 68 68 68 68 68 68 68 68 68 67 67 67 67 67 67 67 66 66 66 66 66 66 64 -1 -1 -1 -1 -1 -1 -1 66 66 66 65 65 65 65 65 64 64 64 64 64 64 64 64 64 64 64 63 63 63 -1 -1 -1 -1
63 63 63 -1 -1 -1 -1 -1 -1 -1 -1 -1 -1 -1 -1 -1 -1 -1 -1 -1 -1 -1 -1 -1 -1 -1 -1 63 63 63 63 64 64 64 65 66 66 66 66 66 66 66 66 66 66 66 66 66 65 65 65 65 64 64 64 64 65 67 69 71 71 71 71 71 70 70 70 70 70 69 69 69 69 68 68 68 68 67 67 67 67 67 67 67 67 67 67 67 67 67 67 68 68 68 68 68 68 68 68 68 68 69 69 69 69 69 70 70 71 71 72 72 72 71 71 70 70 69 69 68 68 69 69 69 70 70 71 71 71 72 72 72 72 72 72 72 72 72 72 72 72 72 72 72 72 71 71 71 71 71 71 71 71 71 71 71 71 71 71 71 71 70 70 70 70 70 69 69 69 69 69 68 68 68 68 68 68 68 68 68 68 68 68 68 68 68 68 68 68 68 68 68 68 68 68 68 68 68 68 68 68 68 68 68 68 68 68 68 68 68 67 67 67 67 67 67 67 67 66 66 66 64 -1 -1 -1 -1 -1 -1 -1 -1 66 66 66 66 65 65 65 65 65 64 64 64 64 64 64 64 64 64 64 63 63 63 -1 -1 -1 -1
63 63 63 63 -1 -1 -1 -1 -1 -1 -1 -1 -1 -1 -1 -1 -1 -1 -1 -1 -1 -1 -1 -1 -1 -1 -1 63 63 63 63 64 64 64 64 66 65 65 65 65 65 65 65 65 65 65 65 65 65 65 64 64 64 64 64 64 65 67 68 70 70 70 71 71 70 70 70 70 70 69 69 69 69 68 68 68 68 68 68 68 68 68 68 68 68 68 67 67 68 68 68 68 68 68 68 68 68 68 68 68 68 68 68 68 69 69 69 69 70 71 71 72 71 71 70 69 69 68 68 68 68 68 69 69 70 70 71 71 71 71 72 72 72 72 72 72 72 72 72 72 72 72 72 72 72 72 72 71 71 71 71 71 71 71 71 71 71 71 71 71 71 71 70 70 70 70 69 69 69 69 69 69 69 68 68 68 68 68 68 68 68 69 69 69 69 68 68 68 68 68 68 68 68 68 68 68 69 69 69 69 69 69 68 68 68 68 68 68 68 68 68 68 68 67 67 67 67 67 67 67 66 64 -1 -1 -1 -1 -1 -1 -1 67 67 67 67 67 67 68 65 65 65 64 64 64 64 64 64 64 64 64 64 64 63 63 -1 -1 -1 -1
63 63 63 63 63 63 -1 -1 -1 -1 -1 -1 -1 -1 -1 -1 -1 -1 -1 -1 -1 -1 -1 -1 -1 -1 -1 63 63 63 63 63 64 64 64 65 65 65 65 65 65 65 65 65 65 65 65 65 65 64 64 64 64 64 64 64 64 66 67 69 70 70 70 71 71 70 70 70 70 70 69 69 69 69 69 68 68 68 68 68 68 68 68 68 68 68 68 68 68 68 68 68 68 68 68 68 68 68 68 68 68 68 68 68 68 68 69 69 69 70 71 71 71 70 69 68 68 68 68 68 68 68 68 68 69 70 70 71 71 71 72 72 72 72 72 72 72 72 72 72 72 72 72 72 72 72 72 72 72 72 72 72 72 72 71 71 71 71 71 71 71 71 71 70 70 70 70 69 69 69 69 69 69 69 69 68 69 69 69 69 69 69 69 69 69 69 69 69 69 69 69 69 69 69 69 69 69 69 69 69 69 69 69 69 68 68 68 68 68 68 68 68 68 68 68 67 67 67 67 67 67 67 -1 -1 -1 -1 -1 -1 -1 67 68 68 68 68 68 69 68 65 65 65 64 64 64 64 64 64 64 64 64 64 63 63 -1 -1 -1 -1
64 63 63 63 63 63 63 -1 -1 -1 -1 -1 -1 -1 -1 -1 -1 -1 -1 -1 -1 -1 -1 -1 -1 -1 -1 63 63 63 63 63 64 64 64 65 65 65 65 65 65 65 65 65 65 65 65 65 65 64 64 64 64 64 64 64 65 66 68 70 70 70 71 71 71 70 70 70 70 70 70 69 69 69 69 69 69 69 68 68 68 68 68 68 68 68 68 68 68 68 68 68 68 68 68 68 68 68 68 68 68 68 68 68 68 69 69 69 69 70 70 71 70 69 69 68 68 68 68 68 68 68 68 68 69 69 70 70 71 71 72 72 72 72 72 72 72 72 72 72 72 72 72 72 72 72 72 72 72 72 72 72 72 72 72 72 71 71 71 71 71 71 71 71 70 70 70 69 69 69 69 69 69 69 69 69 69 69 69 69 69 69 69 69 69 69 69 69 69 69 69 69 69 69 69 69 69 69 69 69 69 69 69 69 68 68 68 68 68 68 68 68 68 68 68 68 68 67 67 67 67 -1 -1 -1 -1 -1 -1 -1 -1 68 68 68 68 68 68 68 67 66 65 65 65 64 64 64 64 64 64 64 64 64 63 63 63 -1 -1 -1
64 64 64 63 63 63 63 63 -1 -1 -1 -1 -1 -1 -1 -1 -1 -1 -1 -1 -1 -1 -1 -1 -1 -1 -1 -1 63 63 63 63 64 64 64 65 65 65 65 65 65 65 65 65 65 65 65 65 64 64 64 64 64 64 64 64 65 67 68 70 70 70 71 71 71 71 70 70 70 70 70 70 69 69 69 69 69 69 69 69 69 69 69 68 68 68 68 68 68 68 68 68 68 68 68 68 68 68 68 68 68 68 68 68 68 69 69 69 69 69 70 70 69 69 69 68 68 68 68 68 68 68 68 68 69 69 70 70 71 71 72 72 72 72 72 72 72 72 72 72 72 72 72 72 72 72 72 72 72 72 72 71 71 72 72 72 71 71 71 71 71 71 71 71 70 70 70 70 69 69 69 69 69 69 69 69 69 69 69 69 69 69 69 69 69 69 69 69 69 69 69 69 69 69 69 69 69 69 69 69 69 69 69 69 69 68 68 68 68 68 69 69 68 68 68 68 68 68 68 67 -1 -1 -1 -1 -1 68 68 68 68 68 68 68 68 68 68 68 67 67 66 66 65 65 64 64 64 64 64 64 64 64 64 63 63 -1 -1 -1
64 64 64 64 63 63 63 63 63 -1 -1 -1 -1 -1 -1 -1 -1 -1 -1 -1 -1 -1 -1 -1 -1 -1 -1 -1 63 63 63 63 64 64 64 65 65 65 64 64 64 64 64 64 64 65 65 65 64 64 64 64 64 64 64 64 65 67 69 70 70 71 71 71 71 71 71 70 70 70 70 70 70 70 69 69 69 69 69 69 69 69 69 69 69 69 68 68 68 68 68 68 68 68 68 68 68 68 68 69 69 69 69 69 69 69 69 69 69 69 69 69 69 69 68 68 68 68 68 68 68 68 68 69 69 69 69 69 70 71 72 73 73 73 73 73 72 72 72 72 72 72 72 72 72 72 72 72 72 72 72 71 71 71 72 72 72 71 71 71 71 71 71 71 70 70 70 70 70 69 69 69 69 69 69 69 69 69 69 69 69 69 69 69 69 69 69 69 69 69 69 69 69 69 69 69 69 69 69 69 69 69 69 69 69 69 68 68 68 69 69 69 69 69 68 68 68 68 68 68 68 68 68 68 68 68 68 68 68 68 68 68 68 68 68 67 67 67 66 66 66 65 64 64 64 64 64 64 64 64 64 63 63 63 -1 -1
64 64 64 64 64 63 63 63 63 63 -1 -1 -1 -1 -1 -1 -1 -1 -1 -1 -1 -1 -1 -1 -1 -1 -1 -1 63 63 63 63 64 64 64 65 64 64 64 64 64 64 64 64 64 64 64 65 64 64 64 64 64 64 64 64 66 67 69 70 70 71 71 71 71 71 71 71 70 70 70 70 70 70 70 70 70 70 70 69 69 69 69 69 69 69 69 69 69 68 68 68 68 68 68 68 68 69 69 69 69 69 69 69 69 69 69 69 69 68 68 68 68 68 68 68 68 68 68 68 68 68 69 69 69 69 69 69 70 71 72 73 73 73 73 73 73 73 72 72 72 72 72 72 72 72 72 72 72 72 71 71 71 71 72 72 72 72 71 71 71 71 71 71 70 70 70 70 70 69 69 69 69 69 69 69 69 69 69 69 69 69 69 69 69 69 69 69 69 69 69 69 69 69 69 69 69 69 69 68 69 69 69 69 69 69 69 69 69 69 69 69 69 69 69 69 69 68 68 68 68 68 68 68 68 68 68 68 68 68 68 68 68 67 67 67 67 67 67 67 66 65 65 64 64 64 64 64 64 64 64 64 63 63 -1 -1
65 64 64 64 64 64 64 63 63 63 63 -1 -1 -1 -1 -1 -1 -1 -1 -1 -1 -1 -1 -1 -1 -1 -1 -1 63 63 63 63 64 64 64 64 64 64 64 64 64 64 64 64 64 64 64 64 64 64 64 64 64 64 64 64 66 67 69 70 71 71 71 71 71 71 71 71 71 70 70 70 70 70 70 70 70 70 70 70 70 69 69 69 69 69 69 69 69 68 68 68 68 68 68 68 69 69 69 69 69 69 69 69 69 69 69 69 69 69 69 69 69 68 68 68 68 68 68 68 68 68 69 69 69 69 69 69 70 71 72 73 73 73 73 73 73 73 72 72 72 72 72 72 72 72 72 72 72 72 72 71 71 71 72 72 72 72 72 71 71 71 71 71 71 70 70 70 70 69 69 69 69 69 69 69 69 69 69 69 69 69 69 69 69 69 69 69 69 69 69 69 69 69 69 69 69 69 69 68 69 69 69 69 69 69 69 69 69 69 69 69 69 69 69 69 69 69 69 68 68 68 68 68 68 68 69 69 68 68 68 68 68 68 68 67 67 67 67 67 66 66 65 64 64 64 64 64 64 64 64 64 63 63 63 -1
65 65 65 64 64 64 64 64 63 63 63 63 -1 -1 -1 -1 -1 -1 -1 -1 -1 -1 -1 -1 -1 -1 -1 -1 63 63 63 63 64 64 64 64 64 64 64 64 64 64 64 64 64 64 64 64 64 64 64 64 64 64 64 64 66 67 69 71 71 71 71 71 71 71 71 71 71 71 70 70 70 70 70 70 70 70 70 70 70 70 69 69 69 69 69 69 69 69 68 68 68 68 69 69 69 69 69 69 69 69 69 69 69 69 69 69 69 69 69 69 69 69 69 68 68 68 68 68 68 69 69 69 69 69 69 69 70 71 72 73 73 73 73 73 73 73 72 72 72 72 72 72 72 72 72 72 72 72 72 71 71 72 72 72 72 72 72 72 71 71 71 71 71 70 70 70 70 69 69 69 69 69 69 69 69 69 69 69 69 69 69 69 69 69 69 69 69 69 69 69 69 69 69 69 69 69 69 69 69 69 69 69 69 69 69 69 69 69 69 69 69 69 69 69 69 69 69 69 69 69 68 68 69 69 69 69 69 69 69 68 68 68 68 68 67 67 67 67 66 66 65 65 65 64 64 64 64 64 64 64 64 63 63 -1
66 66 66 66 65 64 64 64 64 63 63 63 -1 -1 -1 -1 -1 -1 -1 -1 -1 -1 -1 -1 -1 -1 -1 -1 63 63 63 63 64 64 64 64 64 64 64 64 64 64 64 64 64 64 64 64 64 64 64 64 64 64 64 64 65 67 69 71 71 71 71 72 71 71 71 71 71 71 71 70 70 70 70 70 70 70 70 70 70 70 70 69 69 69 69 69 69 69 69 68 68 69 69 69 69 69 69 69 69 69 69 69 69 69 69 69 69 69 69 70 69 69 69 68 68 68 68 68 69 69 69 69 69 69 69 69 70 71 72 72 72 73 73 73 73 73 73 72 72 72 72 72 72 72 72 72 72 72 72 71 71 72 72 72 72 72 72 72 71 71 71 71 71 70 70 70 70 69 69 69 69 69 69 69 69 69 69 69 69 69 69 69 69 69 69 69 69 69 69 69 69 69 69 69 69 69 69 69 69 69 69 69 69 69 69 69 69 69 69 69 69 69 69 69 69 69 69 69 69 69 69 69 69 69 69 69 69 69 69 69 68 68 68 68 68 68 67 67 67 66 66 65 65 65 64 64 64 64 64 64 64 63 63 -1
67 67 67 66 66 65 64 64 64 64 63 63 63 -1 -1 -1 -1 -1 -1 -1 -1 -1 -1 -1 -1 -1 -1 -1 63 63 63 63 64 64 64 64 64 64 64 64 64 64 64 64 64 64 64 64 64 64 64 64 64 64 64 64 65 67 69 71 71 72 72 72 72 71 71 71 71 71 71 71 71 71 71 71 70 70 70 70 70 70 70 70 69 69 69 69 69 69 69 69 69 69 69 69 69 69 69 69 69 69 69 69 69 69 69 69 69 69 70 70 70 69 69 69 69 69 69 69 69 69 69 69 69 69 69 69 70 71 72 72 72 72 73 73 73 73 73 73 72 72 72 72 72 72 72 72 72 72 72 71 71 72 72 72 72 72 72 72 72 71 71 71 71 71 70 70 70 69 69 69 69 69 69 69 69 69 69 69 69 69 69 69 69 69 69 69 69 69 69 69 69 69 69 69 69 69 69 69 69 69 69 69 69 69 69 69 69 69 69 69 69 69 69 69 69 69 69 69 69 69 69 69 69 69 70 70 70 69 69 69 69 69 68 68 68 68 68 67 67 67 66 66 66 65 65 64 64 64 64 64 64 63 63 -1
67 67 67 67 66 66 66 65 64 64 64 63 63 63 -1 -1 -1 -1 -1 -1 -1 -1 -1 -1 -1 -1 -1 -1 63 63 63 63 64 64 64 64 64 64 64 64 64 64 64 64 64 64 64 64 64 64 64 64 64 64 64 64 65 67 69 71 71 71 72 72 72 72 71 71 71 71 71 71 71 71 71 71 71 71 70 70 70 70 70 70 69 69 69 69 69 69 69 69 69 69 69 69 69 69 69 69 69 69 69 69 69 69 69 69 69 69 69 70 69 69 69 69 69 69 69 69 70 70 70 70 70 70 70 70 71 71 72 72 72 72 73 73 73 73 73 73 72 72 72 72 72 72 72 72 72 72 72 71 72 72 72 72 72 72 72 72 72 71 71 71 71 71 70 70 70 69 69 69 69 69 69 69 69 69 69 69 69 69 69 69 69 69 69 69 69 69 69 69 69 69 69 69 69 69 69 68 68 68 68 69 68 68 68 68 69 69 69 69 69 69 69 69 69 69 69 69 69 69 69 69 69 69 70 70 70 69 69 69 69 69 68 68 68 68 68 67 67 67 67 66 66 65 65 65 64 64 64 64 64 64 63 63
67 67 67 67 67 67 67 66 65 64 64 64 63 63 63 -1 -1 -1 -1 -1 -1 -1 -1 -1 -1 -1 -1 -1 63 63 63 63 63 64 64 64 64 64 64 64 64 64 64 64 64 64 64 64 64 64 64 64 64 64 64 64 65 67 69 71 71 71 72 72 72 72 72 71 71 71 71 71 71 71 71 71 71 71 71 70 70 70 70 70 70 69 69 69 69 69 69 69 69 69 69 69 69 69 69 69 69 69 69 69 69 69 69 69 69 69 69 69 69 69 69 69 70 70 70 70 70 71 71 71 71 71 71 71 71 72 72 72 72 72 72 73 73 73 73 72 72 72 72 72 72 72 72 72 72 72 72 72 72 72 72 72 72 72 72 72 72 71 71 71 71 71 70 70 70 70 69 69 69 69 69 69 69 69 69 69 69 69 69 69 69 69 69 69 69 69 69 69 69 69 69 69 68 68 68 68 68 68 68 68 68 68 68 68 68 68 68 69 69 69 69 69 69 69 69 69 69 69 69 69 69 69 69 70 69 69 69 69 69 69 68 68 68 68 68 67 67 67 67 66 66 66 65 65 65 64 64 64 64 64 63 63
68 68 68 68 67 67 67 67 66 65 64 64 64 63 63 63 -1 -1 -1 -1 -1 -1 -1 -1 -1 -1 -1 -1 -1 63 63 63 63 64 64 64 64 64 64 64 64 64 64 64 64 64 64 64 64 64 64 64 64 64 64 64 65 67 68 70 71 71 72 72 72 72 72 72 71 71 71 71 71 71 71 71 71 71 71 70 70 70 70 70 70 69 69 69 69 69 69 69 69 69 69 69 69 69 69 69 69 69 69 69 69 69 69 69 69 69 69 69 69 69 69 70 70 70 71 71 71 71 71 72 71 71 71 71 72 72 72 72 72 72 72 73 73 73 73 72 72 72 73 73 72 72 72 72 72 72 72 72 72 72 72 72 72 72 72 72 72 71 71 71 71 71 70 70 70 70 69 69 69 69 69 69 69 69 69 69 69 69 69 69 69 69 69 69 69 69 69 69 68 68 68 68 68 68 68 68 68 68 68 68 68 68 68 68 68 68 68 68 69 69 69 69 69 69 69 69 69 69 69 69 69 69 69 69 69 69 69 69 69 69 69 68 68 68 68 68 67 67 67 67 66 66 66 65 65 64 64 64 64 64 63 63
68 68 68 68 68 68 68 68 67 66 64 64 64 63 63 63 -1 -1 -1 -1 -1 -1 -1 -1 -1 -1 -1 -1 -1 63 63 63 63 64 64 64 64 64 64 64 64 64 64 64 64 64 64 64 64 64 64 64 64 64 64 64 65 67 68 70 71 71 72 72 72 72 72 72 72 71 71 71 71 71 71 71 71 71 71 70 70 70 70 70 70 69 69 69 69 69 69 69 69 69 69 69 69 69 69 69 69 69 69 69 69 69 69 69 69 69 69 69 69 69 70 70 70 71 71 72 72 72 72 72 72 72 72 72 72 72 72 72 72 72 72 73 73 73 72 72 72 73 73 73 72 72 72 72 72 72 72 72 72 72 72 72 72 72 72 72 72 71 71 71 71 71 70 70 70 70 69 69 69 69 69 69 69 69 69 69 69 69 69 69 69 69 69 69 69 69 69 68 68 68 68 68 68 68 68 68 68 68 68 68 68 68 68 68 68 68 68 68 68 69 69 69 69 69 69 69 69 69 69 69 69 69 69 69 69 69 69 69 69 69 69 68 68 68 68 68 67 67 67 67 67 66 66 66 65 65 64 64 64 64 64 63
68 68 68 68 68 68 68 68 67 66 65 64 64 64 63 63 -1 -1 -1 -1 -1 -1 -1 -1 -1 -1 -1 -1 -1 63 63 63 63 63 64 64 64 64 64 64 64 64 64 64 64 64 64 64 64 64 64 64 64 64 64 64 65 66 67 69 70 71 71 72 72 72 72 72 72 72 71 71 71 71 71 71 71 71 71 71 71 70 70 70 70 70 69 69 69 69 69 69 69 69 69 69 69 69 69 69 69 69 69 69 69 69 69 69 69 69 69 69 69 70 70 70 71 71 72 72 72 72 72 72 72 72 72 72 72 72 72 72 72 72 72 73 73 73 72 72 72 72 73 73 72 72 72 72 72 72 72 72 72 72 72 71 72 72 72 72 71 71 71 71 71 71 70 70 70 70 69 69 69 69 69 69 69 69 69 69 69 69 69 69 69 69 69 69 69 69 69 68 68 68 68 68 68 68 68 68 68 68 68 68 68 68 68 68 68 68 68 68 68 69 69 69 69 69 69 69 69 69 69 69 69 69 69 69 69 69 69 69 69 69 68 68 68 68 68 68 67 67 67 67 67 66 66 66 65 65 64 64 64 64 64 63
68 68 68 68 68 68 68 68 68 67 66 65 64 64 64 63 63 -1 -1 -1 -1 -1 -1 -1 -1 -1 -1 -1 -1 63 63 63 63 63 64 64 64 64 64 64 64 64 64 64 64 64 64 64 64 64 64 64 64 64 64 64 65 65 67 68 69 70 71 72 72 72 72 72 72 72 72 72 72 71 71 71 71 71 71 71 71 71 70 70 70 70 70 69 69 69 69 69 69 69 69 69 69 69 69 69 69 69 69 70 69 69 69 69 69 69 69 69 69 70 70 71 71 72 72 72 72 72 72 72 72 72 72 72 72 72 72 72 72 72 73 73 73 73 72 72 72 72 72 72 72 72 72 72 72 72 72 71 71 71 71 71 71 71 71 71 71 71 71 71 71 70 70 70 70 70 70 69 69 69 69 69 69 69 69 69 69 69 69 69 69 69 69 69 69 69 69 68 68 68 68 68 68 68 68 68 68 68 68 68 68 68 68 68 68 68 68 68 68 68 69 69 69 69 69 69 69 69 69 69 69 69 69 69 69 69 69 69 69 69 68 68 68 68 68 68 67 67 67 67 67 67 66 66 66 65 65 64 64 64 64 64
69 69 69 69 69 69 69 69 68 67 67 66 65 64 64 64 63 -1 -1 -1 -1 -1 -1 -1 -1 -1 -1 -1 -1 -1 63 63 63 63 63 64 64 64 64 64 64 64 64 64 64 64 64 64 64 64 64 64 64 64 64 64 64 65 66 67 68 70 71 72 72 72 72 72 72 72 72 72 72 72 72 72 71 71 71 71 71 71 71 70 70 70 70 70 69 69 69 69 69 69 69 69 69 69 69 69 69 69 70 70 70 69 69 69 69 69 69 69 70 70 71 71 72 72 72 72 72 72 72 72 72 72 72 72 72 72 72 72 72 72 73 73 73 73 72 72 72 72 72 72 72 72 72 72 72 72 71 71 71 71 71 71 71 71 71 71 71 71 71 71 70 70 70 70 70 70 70 69 69 69 69 69 69 69 69 69 69 69 69 69 69 69 69 69 69 69 68 68 68 68 68 68 68 68 68 68 68 68 68 68 68 68 68 68 68 68 68 68 68 68 69 69 69 69 69 69 69 69 69 69 69 69 69 69 69 69 69 69 69 69 68 68 68 68 68 68 67 67 67 67 67 67 67 66 66 65 65 64 64 64 64 64
69 69 69 69 69 69 69 69 68 68 67 66 65 64 64 64 63 -1 -1 -1 -1 -1 -1 -1 -1 -1 -1 -1 -1 -1 63 63 63 63 63 64 64 64 64 64 64 64 64 64 64 64 64 64 64 64 64 64 64 64 64 64 64 64 65 65 68 69 71 72 72 72 72 72 72 72 72 72 72 72 72 72 72 72 71 71 71 71 71 71 70 70 70 70 70 69 69 69 69 69 69 69 69 69 69 69 69 69 70 70 70 70 70 69 69 69 69 69 70 70 71 72 72 72 72 73 73 73 73 73 72 72 72 72 72 72 72 72 72 72 73 73 73 73 73 72 72 72 72 72 72 72 72 72 72 71 71 71 71 71 71 71 71 71 71 71 71 71 71 70 70 70 70 70 70 70 70 69 69 69 69 69 69 69 69 69 69 69 69 69 69 69 69 69 69 69 68 68 68 68 68 68 68 68 68 68 68 68 68 68 68 68 68 68 68 68 68 68 68 68 68 69 69 69 69 69 69 69 69 69 69 69 69 69 69 69 69 69 69 69 68 68 68 68 68 68 67 67 67 67 67 67 67 67 66 66 65 65 64 64 64 64
69 69 69 69 69 69 69 69 69 68 68 67 66 65 64 64 63 63 -1 -1 -1 -1 -1 -1 -1 -1 -1 -1 -1 -1 -1 -1 -1 63 63 63 64 64 64 64 64 64 64 64 64 64 64 64 64 64 64 64 64 64 64 64 64 65 66 67 69 70 71 72 72 72 72 72 72 72 72 72 72 72 72 72 72 72 72 71 71 71 71 71 71 70 70 70 70 70 70 69 69 69 69 69 69 69 69 69 70 70 70 70 70 70 70 69 69 69 69 69 70 71 72 72 72 73 73 73 73 73 73 73 73 72 72 72 72 72 72 72 72 72 72 73 72 72 72 72 72 72 72 72 72 72 72 72 71 71 71 71 71 71 71 71 71 71 71 71 71 71 71 70 70 70 70 70 70 70 70 70 69 69 69 69 69 69 69 69 69 69 69 69 69 69 69 68 68 68 68 68 68 68 68 68 68 68 68 68 68 68 68 68 68 68 68 68 68 68 68 68 68 68 69 69 69 69 69 69 69 69 69 69 69 69 69 69 69 69 69 69 69 68 68 68 68 68 68 68 68 67 67 67 67 67 67 67 66 66 65 65 64 64 64 64
69 69 69 69 69 69 69 69 69 68 68 67 66 65 64 64 64 63 63 -1 -1 -1 -1 -1 -1 -1 -1 -1 -1 -1 -1 -1 -1 -1 63 63 63 64 64 64 64 64 64 64 64 64 64 64 64 64 64 64 64 64 64 64 65 66 67 69 70 71 72 72 72 72 72 72 72 72 72 72 72 72 72 72 72 72 72 72 71 71 71 71 71 71 70 70 70 70 70 70 70 70 70 70 70 70 70 70 70 70 70 70 70 70 70 70 69 69 69 69 70 71 72 73 73 73 73 73 73 73 73 73 73 73 72 72 72 72 72 72 72 72 72 72 72 72 72 72 72 72 72 72 72 72 72 71 71 71 71 71 71 71 71 71 71 71 71 71 71 71 70 70 70 70 70 70 70 70 70 70 70 69 69 69 69 69 69 69 69 69 69 69 69 68 68 68 68 68 68 68 68 68 68 68 68 68 68 68 68 68 68 68 68 68 68 68 68 68 68 68 68 68 69 69 69 69 69 69 69 69 69 69 69 69 69 69 69 69 69 69 68 68 68 68 68 68 68 68 68 67 67 67 67 67 67 67 66 66 66 65 65 64 64 64
69 69 69 69 69 69 69 69 69 69 68 68 67 66 65 64 64 64 63 63 -1 -1 -1 -1 -1 -1 -1 -1 -1 -1 -1 -1 -1 -1 63 63 63 63 64 64 64 64 64 64 64 64 64 65 64 64 64 64 64 64 64 64 65 67 69 71 71 72 72 73 73 72 72 72 72 72 72 72 72 72 72 72 72 72 72 72 72 71 71 71 71 71 71 71 70 70 70 70 70 70 70 70 70 70 70 70 70 70 70 70 70 70 70 70 69 69 69 69 70 71 72 73 73 73 73 73 73 73 73 73 73 73 73 72 72 72 72 72 72 72 72 72 72 72 72 72 72 72 72 72 72 72 72 71 71 71 71 71 71 71 71 71 71 71 71 71 71 70 70 70 70 70 70 70 70 70 70 70 70 70 69 69 69 69 69 69 69 69 69 68 68 68 68 68 68 68 68 68 68 68 68 68 68 68 68 68 68 68 68 68 68 68 68 68 68 68 68 68 68 69 69 69 69 69 69 69 69 69 69 69 69 69 69 69 69 68 68 68 68 68 68 68 68 68 68 68 68 68 67 67 67 67 67 67 66 66 66 65 65 64 64 64
69 69 69 69 69 69 69 69 69 69 68 68 67 66 65 64 64 64 64 63 63 -1 -1 -1 -1 -1 -1 -1 -1 -1 -1 -1 -1 -1 -1 63 63 63 64 64 64 64 64 64 64 64 64 65 65 64 64 64 64 64 64 64 66 68 70 72 73 73 73 73 73 73 73 72 72 72 73 73 73 72 72 72 72 72 72 72 72 72 71 71 71 71 71 71 71 71 70 70 70 70 70 70 70 70 70 70 70 70 70 70 70 70 70 70 70 69 69 69 70 72 72 74 73 73 73 73 73 73 73 73 73 73 73 73 72 72 72 72 72 72 72 72 72 72 72 72 72 72 72 72 72 72 71 71 71 71 71 71 71 71 71 71 71 71 71 70 70 70 70 70 70 70 70 70 70 70 70 70 70 70 70 69 69 69 69 69 69 69 68 68 68 68 68 68 68 68 68 67 68 68 68 68 68 68 68 68 68 68 68 68 68 68 68 68 68 68 68 68 68 69 69 69 69 69 69 69 69 69 69 69 69 69 68 68 68 68 68 68 68 68 68 68 68 68 68 68 68 68 67 67 67 67 67 67 67 66 66 66 65 65 64 64
69 69 69 69 69 69 69 69 69 69 69 68 68 67 66 65 64 64 64 64 63 -1 -1 -1 -1 -1 -1 -1 -1 -1 -1 -1 -1 -1 -1 -1 63 63 63 64 64 64 64 64 64 64 64 65 65 65 65 65 65 65 65 65 67 68 70 72 72 72 72 72 72 72 73 73 73 73 73 73 73 73 73 73 72 72 72 72 72 72 72 71 71 71 71 71 71 71 71 71 70 70 70 70 70 70 70 70 70 70 70 70 70 70 70 70 70 70 70 71 71 72 73 74 73 73 73 73 73 73 73 73 73 73 73 72 72 72 72 72 72 72 72 72 72 72 72 72 72 72 72 72 72 71 71 71 71 71 71 71 71 71 71 71 71 70 70 70 70 70 70 70 70 70 70 70 70 70 69 69 69 69 69 69 69 69 69 69 69 68 68 68 68 68 68 68 68 68 67 67 67 67 68 68 68 68 68 68 68 68 68 68 68 68 68 68 68 68 68 68 69 69 69 69 69 69 69 69 69 69 69 69 69 68 68 68 68 68 68 68 68 68 68 68 68 68 68 68 68 68 68 68 67 67 67 67 67 66 66 66 65 65 65 64
69 69 69 69 69 69 69 69 69 69 69 68 68 67 66 65 64 64 64 64 63 63 -1 -1 -1 -1 -1 -1 -1 -1 -1 -1 -1 -1 -1 -1 -1 63 63 64 64 64 64 64 64 64 64 65 65 65 65 65 65 66 66 66 68 69 71 72 72 72 72 72 72 72 73 73 73 73 73 73 73 73 73 73 73 73 72 72 72 72 72 72 72 71 71 71 71 71 71 71 71 71 71 71 71 71 71 71 71 71 71 71 71 70 70 70 71 71 71 72 72 73 73 74 74 61 63 62 73 73 73 73 73 73 72 72 72 72 72 72 72 72 72 72 72 72 72 72 72 72 72 72 72 71 71 71 71 71 71 71 71 71 71 71 70 70 70 70 70 70 70 70 70 70 70 70 69 69 69 69 69 69 69 69 69 69 69 69 68 68 68 68 68 68 68 68 67 67 67 67 67 67 67 68 68 68 68 68 68 68 68 68 68 68 68 68 68 68 68 69 69 69 69 69 69 69 69 69 69 69 69 69 68 68 68 68 68 68 68 68 68 68 68 68 68 68 68 68 68 68 68 68 68 67 67 67 67 67 66 66 66 65 65 65
69 69 69 69 69 69 69 69 69 69 69 69 68 68 67 66 65 64 64 64 64 63 63 -1 -1 -1 -1 -1 -1 -1 -1 -1 -1 -1 -1 -1 -1 -1 63 64 64 64 64 64 64 64 64 65 65 65 65 66 66 67 67 68 69 70 71 72 72 72 72 72 72 72 73 73 73 73 73 73 73 73 73 73 73 73 73 72 72 72 72 72 72 72 72 71 71 71 71 71 71 71 71 71 71 71 71 71 71 71 71 71 71 71 71 71 71 72 72 73 73 73 74 74 74 74 60 62 62 73 73 73 73 72 72 72 72 72 72 72 72 72 72 72 72 72 72 72 72 72 72 72 71 71 71 71 71 71 71 71 71 71 70 70 70 70 70 70 70 70 70 70 70 70 70 69 69 69 69 69 69 69 69 69 69 69 69 68 68 68 68 68 68 68 67 67 67 67 67 67 67 67 67 68 68 68 68 68 68 68 68 68 68 68 68 68 68 68 69 69 69 69 69 69 69 69 69 69 69 69 69 68 68 68 68 68 68 68 68 68 68 68 68 68 68 68 68 68 68 68 68 68 68 67 67 67 67 67 66 66 66 65 65 65
69 69 69 69 69 69 69 69 69 69 69 69 68 68 67 67 66 65 64 64 64 63 63 63 -1 -1 -1 -1 -1 -1 -1 -1 -1 -1 -1 -1 -1 -1 63 63 64 64 64 64 64 64 64 65 65 65 66 66 67 68 69 70 71 71 71 72 72 72 71 71 72 72 73 73 73 73 73 73 73 73 73 73 73 73 73 73 72 72 72 72 72 72 72 72 72 72 71 71 71 71 71 71 71 71 71 71 71 71 71 71 71 71 71 71 72 73 73 74 74 74 74 74 74 74 63 63 63 63 71 73 73 72 71 71 71 72 72 72 71 71 71 71 72 72 72 72 72 72 72 72 71 71 71 71 71 71 71 71 71 71 70 70 70 70 70 70 70 70 70 70 70 70 69 69 69 69 69 69 69 69 69 69 69 69 68 68 68 68 68 68 67 67 67 67 67 67 67 67 67 67 67 67 68 68 68 68 68 68 68 68 68 68 68 68 68 69 69 69 69 69 69 69 69 69 69 69 69 69 68 68 68 68 68 68 68 68 68 67 68 68 68 68 68 68 68 68 68 68 68 68 68 68 67 67 67 67 66 66 66 66 65 65
69 69 69 69 69 69 69 69 69 69 69 69 68 68 68 67 66 65 64 64 64 64 63 63 -1 -1 -1 -1 -1 -1 -1 -1 -1 -1 -1 -1 -1 -1 63 63 64 64 64 64 65 65 66 67 67 67 68 68 68 69 70 70 71 71 71 71 71 71 71 71 72 72 73 73 73 73 73 73 73 73 73 73 73 73 73 73 73 72 72 72 72 72 72 72 72 72 72 72 72 72 72 72 72 72 72 72 72 72 72 72 72 72 72 72 73 73 74 74 74 74 74 74 74 74 74 61 62 63 71 71 71 71 71 71 71 71 71 71 70 70 70 70 70 70 72 72 72 72 72 72 71 71 71 71 71 71 71 71 71 71 70 70 70 70 70 70 70 70 70 70 70 69 69 69 69 69 69 69 69 69 69 69 69 69 68 68 68 68 68 67 67 67 67 67 67 67 67 67 67 67 67 68 68 68 68 68 68 68 68 68 68 68 68 68 68 69 69 69 69 69 69 69 69 69 69 69 68 68 68 68 68 68 68 68 68 68 67 67 67 68 68 68 68 68 68 68 68 68 68 68 68 68 68 68 68 67 67 67 66 66 66 65
69 69 69 69 69 69 69 69 69 69 69 69 69 68 68 68 67 66 65 64 64 64 63 63 -1 -1 -1 -1 -1 -1 -1 -1 -1 -1 -1 -1 -1 -1 63 63 64 64 64 65 66 67 68 68 68 69 69 69 69 70 70 71 71 71 71 71 71 71 71 72 72 72 73 73 73 73 73 73 73 73 73 73 73 73 73 73 73 73 73 72 72 72 72 72 72 72 72 72 72 72 72 72 72 72 72 72 72 72 72 73 73 73 73 73 73 74 74 74 74 74 74 74 74 74 74 60 63 61 71 71 71 71 71 71 71 71 71 70 70 70 70 63 60 60 70 72 72 72 72 72 71 71 71 71 71 71 71 71 71 71 71 70 70 70 70 70 70 70 70 70 69 69 69 69 69 69 69 69 69 69 69 69 69 68 68 68 68 68 67 67 67 67 67 67 67 67 67 67 67 67 67 68 68 68 68 68 68 68 68 68 68 68 68 69 69 69 69 69 69 69 69 69 69 69 68 68 68 68 68 68 68 68 68 68 67 67 67 67 67 67 68 68 68 68 68 68 68 68 68 68 68 68 68 68 68 68 67 67 67 66 66 66
69 69 69 69 69 69 69 69 69 69 69 69 69 68 68 68 67 67 65 64 64 64 64 63 63 -1 -1 -1 -1 -1 -1 -1 -1 -1 -1 -1 -1 -1 -1 63 64 64 65 67 68 69 69 70 70 70 70 70 70 70 71 71 71 71 71 70 71 71 71 72 72 72 73 73 73 73 73 74 74 74 74 74 73 73 73 73 73 73 73 73 73 72 72 72 72 72 72 72 72 72 72 72 72 73 73 73 73 73 73 73 73 74 74 74 74 74 74 74 74 74 74 74 74 74 74 74 74 62 71 71 71 72 71 71 71 71 71 71 70 70 70 60 62 63 63 72 72 72 72 72 72 71 71 71 71 71 71 71 71 71 71 71 70 70 70 70 70 70 70 69 69 69 69 69 69 69 69 69 69 69 69 69 69 68 68 68 68 68 67 67 67 67 67 67 67 67 67 67 67 67 67 68 68 68 68 68 68 68 68 68 68 68 68 69 69 69 69 69 69 69 69 69 69 68 68 68 68 68 68 68 68 68 67 67 67 67 67 67 67 67 67 68 68 68 68 68 68 68 68 68 68 69 69 69 69 68 68 67 67 67 66 66
69 69 69 69 69 69 69 69 69 69 69 69 69 69 69 69 68 67 66 64 64 64 64 63 63 -1 -1 -1 -1 -1 -1 -1 -1 -1 -1 -1 -1 -1 -1 63 64 64 66 69 69 70 71 72 71 71 71 71 71 71 71 71 71 70 70 70 70 71 71 72 72 72 73 73 73 73 74 74 74 74 74 74 74 74 73 73 73 73 73 73 73 73 73 73 72 72 72 72 72 72 72 72 73 73 73 74 74 74 74 74 74 74 74 74 74 74 74 75 74 74 74 74 74 74 74 74 74 74 74 72 73 72 72 71 71 71 71 71 71 70 70 60 60 61 60 72 72 72 72 72 72 71 71 71 71 71 71 71 71 71 71 71 71 70 70 70 70 70 70 69 69 69 69 69 69 69 69 69 69 69 69 69 68 68 68 68 68 67 67 67 67 67 67 67 67 67 67 67 67 67 67 68 68 68 68 68 68 68 68 68 68 68 69 69 69 69 69 69 69 69 69 69 68 68 68 68 68 68 68 68 68 67 67 67 67 67 67 67 67 67 67 68 68 68 68 68 68 68 68 68 69 69 69 70 69 69 68 68 67 67 67 66
69 69 69 69 69 69 69 69 69 69 69 69 69 69 69 69 68 67 67 66 64 64 64 64 63 -1 -1 -1 -1 -1 -1 -1 -1 -1 -1 -1 -1 -1 -1 63 63 64 65 68 69 69 70 71 71 71 70 70 70 70 70 70 70 70 70 70 70 70 71 71 72 72 72 73 73 73 73 74 74 74 74 74 74 74 73 73 73 73 73 73 73 73 73 73 73 73 73 73 72 72 72 72 73 73 73 74 74 74 74 74 74 74 74 74 74 74 74 74 74 74 74 74 74 74 74 74 74 74 74 74 73 73 73 73 73 73 73 72 72 72 72 72 63 70 72 72 72 72 72 72 72 71 71 71 71 71 71 71 71 71 71 71 71 71 70 70 70 70 70 69 69 69 69 69 69 69 69 69 69 69 69 69 68 68 68 68 68 67 67 67 67 67 67 67 67 67 67 67 67 67 68 68 68 68 68 68 68 68 68 68 68 68 69 69 69 69 69 69 69 69 69 69 68 68 68 68 68 68 68 68 68 67 67 67 67 67 67 67 67 67 67 67 68 68 68 68 68 68 69 69 69 69 69 70 69 69 69 68 68 68 67 67
69 69 69 69 69 69 69 69 69 69 69 69 69 69 69 69 68 68 67 67 65 64 64 64 63 63 -1 -1 -1 -1 -1 -1 -1 -1 -1 -1 -1 -1 -1 63 63 64 64 67 68 69 69 70 70 70 70 70 69 69 69 69 69 69 69 69 70 70 70 71 71 72 72 73 73 73 73 74 74 74 74 74 74 74 73 73 73 73 73 73 73 73 73 73 73 73 73 73 73 72 72 72 73 73 73 73 74 74 74 74 74 74 74 74 74 74 74 74 74 74 74 74 74 74 74 74 74 74 74 74 73 73 73 73 73 73 73 73 72 72 72 72 72 72 72 72 72 72 72 72 72 72 71 71 71 71 71 71 71 71 71 71 71 71 70 70 70 70 70 69 69 69 69 69 69 69 69 69 69 69 69 69 68 68 68 68 68 67 67 67 67 67 67 66 67 67 67 67 67 67 68 68 68 68 68 68 68 68 68 68 68 68 68 69 69 69 69 69 69 69 69 69 68 68 68 68 68 68 68 68 68 67 67 67 67 67 67 67 67 67 67 67 68 68 68 68 68 69 69 69 69 70 70 70 70 69 69 69 69 68 68 68
70 69 69 69 69 69 69 69 69 69 69 69 69 69 69 69 69 68 68 67 66 65 64 64 64 63 63 -1 -1 -1 -1 -1 -1 -1 -1 -1 -1 -1 -1 -1 63 64 64 66 67 68 69 69 69 69 69 69 69 69 68 68 68 69 69 69 69 70 70 70 71 71 72 72 73 73 73 73 74 74 74 74 74 74 74 73 73 73 73 73 73 73 73 73 73 73 73 73 73 73 72 72 73 73 73 73 74 74 74 74 74 74 74 74 74 74 74 74 74 74 74 74 74 74 74 74 74 74 74 74 74 73 73 73 73 73 73 73 73 72 72 72 72 72 72 72 72 72 72 72 72 72 71 71 71 71 71 71 71 71 71 71 71 71 70 70 70 70 70 70 69 69 69 69 69 69 69 69 69 69 69 69 68 68 68 68 67 67 67 67 67 66 66 66 67 67 67 67 67 67 68 68 68 68 68 68 68 68 68 68 68 68 68 68 68 68 68 68 69 69 69 69 68 68 68 68 68 68 68 68 68 67 67 67 67 67 67 67 67 67 67 67 68 68 68 68 69 69 69 70 70 70 70 70 70 70 70 70 69 69 69 69
70 70 69 69 69 69 69 69 69 69 69 69 69 69 69 69 69 69 68 68 67 66 64 64 64 64 63 63 -1 -1 -1 -1 -1 -1 -1 -1 -1 -1 -1 -1 63 64 64 66 66 67 68 69 69 68 68 68 68 68 68 67 68 68 68 68 69 69 70 70 70 71 71 72 72 73 73 73 73 74 74 74 74 74 74 73 73 73 73 73 73 73 73 73 73 73 73 73 73 73 73 72 73 73 73 73 74 74 74 74 74 74 74 74 74 74 74 74 74 74 74 74 74 74 74 74 74 74 74 74 74 74 74 73 73 73 73 73 73 72 72 72 72 72 72 72 72 72 72 72 72 72 72 71 71 71 71 71 71 71 71 71 71 71 70 70 70 70 70 70 69 69 69 69 69 69 69 69 69 69 69 69 68 68 68 68 67 67 67 67 66 66 66 66 66 67 67 67 67 67 68 68 68 68 68 68 68 68 68 68 68 68 68 68 68 68 68 68 68 69 69 69 68 68 68 68 68 68 68 68 68 67 67 67 67 67 67 67 67 67 67 67 67 68 68 68 69 69 70 70 70 70 70 70 70 70 70 70 70 70 70 69
70 70 69 69 69 69 69 69 69 69 69 69 69 69 69 69 69 69 69 68 67 66 65 64 64 64 63 63 63 -1 -1 -1 -1 -1 -1 -1 -1 -1 -1 -1 -1 63 64 65 66 67 67 68 68 68 67 67 67 66 66 65 66 66 66 66 67 68 69 69 70 70 71 71 72 72 73 73 73 73 74 74 74 74 74 73 73 73 73 73 73 73 73 73 73 73 73 73 73 73 73 72 73 73 73 73 74 74 74 74 74 74 74 74 74 74 74 74 74 74 74 74 74 74 74 74 74 74 74 74 74 74 74 73 73 73 73 73 73 73 72 72 72 72 72 72 72 72 72 72 72 72 72 71 71 71 71 71 71 71 71 71 71 71 71 70 70 70 70 70 69 69 69 69 69 69 69 69 69 69 69 69 68 68 68 68 67 67 67 67 66 66 66 66 66 67 67 67 67 67 68 68 68 68 68 68 68 68 68 68 68 68 68 68 69 69 69 69 69 69 69 69 69 69 68 68 68 68 68 68 68 68 68 68 67 67 67 67 67 67 67 67 68 68 68 69 69 69 70 70 70 70 70 70 70 70 70 70 70 70 70 69
70 70 69 69 69 69 69 69 69 69 69 69 69 69 69 69 69 69 69 68 67 66 65 64 64 64 64 63 63 -1 -1 -1 -1 -1 -1 -1 -1 -1 -1 -1 -1 63 64 65 65 66 67 67 67 67 66 66 66 65 64 64 64 64 64 65 66 67 68 69 69 70 70 71 71 72 72 73 73 73 73 74 74 74 73 73 73 73 73 73 73 73 73 73 73 73 73 73 73 73 73 72 73 73 73 73 74 74 74 74 74 74 74 74 74 74 74 74 74 74 74 74 74 74 74 74 74 74 74 74 74 74 74 74 73 73 73 73 73 73 73 72 72 72 72 72 72 72 72 72 72 72 72 72 71 71 71 71 71 71 71 71 71 71 71 70 70 70 70 70 70 69 69 69 69 69 69 69 69 69 69 69 68 68 68 68 67 67 67 67 66 66 66 66 66 67 67 67 67 67 67 68 68 68 68 68 68 68 68 68 68 68 69 69 69 69 69 69 69 69 69 69 69 69 69 69 68 68 68 68 68 68 68 68 68 68 67 67 67 67 67 68 68 68 69 69 69 70 70 70 70 71 71 71 71 70 70 70 70 70 70 70
70 69 69 69 69 69 69 69 69 69 69 69 69 69 69 69 69 69 69 69 68 67 65 64 64 64 64 64 63 -1 -1 -1 -1 -1 -1 -1 -1 -1 -1 -1 -1 -1 63 65 65 65 66 66 66 66 66 65 65 64 64 63 63 63 63 64 64 65 67 68 68 69 70 70 71 71 72 72 73 73 73 74 74 73 73 73 73 73 73 73 73 73 73 73 73 73 73 73 73 73 73 72 73 73 73 73 74 74 74 74 73 73 73 74 74 74 74 74 74 74 74 74 74 74 74 74 74 74 73 73 73 73 73 74 73 73 73 73 73 73 73 73 73 73 72 72 72 72 72 72 72 72 72 72 72 71 71 71 71 71 71 71 71 71 71 71 70 70 70 70 70 69 69 69 69 69 69 69 69 69 69 69 68 68 68 68 67 67 67 67 66 66 66 66 66 66 67 67 67 67 67 68 68 68 68 68 68 68 68 68 68 68 69 69 69 69 69 69 69 69 69 69 69 69 69 69 69 69 68 68 68 68 68 68 68 68 68 68 68 68 68 68 68 69 69 69 70 70 70 71 71 71 71 71 71 71 70 70 70 70 70 70
69 69 69 69 69 69 69 69 69 69 69 69 69 69 69 70 69 69 69 69 68 67 66 64 64 64 64 64 63 63 -1 -1 -1 -1 -1 -1 -1 -1 -1 -1 -1 -1 63 64 65 65 65 65 65 65 65 65 64 63 -1 -1 -1 -1 -1 -1 63 64 66 67 68 68 69 70 70 71 71 72 72 73 73 74 73 73 73 73 73 73 73 73 73 73 73 73 73 73 73 73 73 73 73 72 73 73 73 73 74 74 74 74 73 73 73 74 74 74 74 74 74 74 74 74 74 74 74 74 73 73 73 73 73 73 73 74 73 73 73 73 73 73 73 73 73 73 73 73 73 73 73 73 72 72 72 72 72 72 71 71 71 71 71 71 71 71 71 71 70 70 70 70 70 70 69 69 69 69 69 69 69 69 69 69 68 68 68 68 67 67 67 67 66 66 66 66 66 66 67 67 67 67 67 68 68 68 68 68 68 68 68 68 68 68 69 69 69 69 69 69 69 69 69 69 69 69 69 69 69 69 69 69 68 68 68 68 68 68 68 68 68 68 68 68 68 69 69 70 70 70 71 71 71 71 71 71 71 71 71 70 70 70 70 70
69 69 69 69 69 69 69 69 69 69 69 69 69 69 69 70 69 69 69 69 68 67 66 65 64 64 64 64 64 63 63 -1 -1 -1 -1 -1 -1 -1 -1 -1 -1 -1 63 64 64 64 64 64 64 64 64 64 63 63 -1 -1 -1 -1 -1 -1 63 64 65 66 67 67 68 69 70 70 71 72 72 72 73 73 73 73 73 73 73 73 73 73 73 73 73 73 73 73 73 73 73 73 73 72 73 73 73 73 74 74 74 73 73 73 73 74 74 74 74 74 74 74 74 74 74 74 74 73 73 73 73 73 73 73 73 73 73 73 73 73 73 73 73 73 73 73 73 73 73 73 73 73 72 72 72 72 72 72 72 71 71 71 71 71 71 71 71 71 70 70 70 70 70 70 69 69 69 69 69 69 69 69 69 69 68 68 68 68 68 67 67 67 67 66 66 66 66 67 67 67 67 67 67 68 68 68 68 68 68 68 68 68 68 69 69 69 69 69 69 69 69 69 69 69 69 69 69 69 69 69 69 69 69 69 69 69 68 68 68 68 68 68 68 68 69 69 70 70 70 70 71 71 71 71 71 71 71 71 71 70 70 70 70 70
69 69 69 69 69 69 69 69 69 69 69 69 69 69 69 69 69 69 69 69 68 68 67 66 65 64 64 64 64 64 63 63 -1 -1 -1 -1 -1 -1 -1 -1 -1 -1 -1 63 63 63 63 64 63 63 63 63 -1 -1 -1 -1 -1 -1 -1 -1 -1 63 64 64 65 67 68 69 69 70 71 71 72 72 73 73 73 73 73 73 73 73 73 73 73 73 73 73 73 73 73 73 73 73 72 72 73 73 73 73 73 74 74 73 73 73 73 74 74 74 74 74 74 74 74 74 74 73 73 73 73 73 73 73 73 73 73 73 73 73 73 73 73 73 73 73 73 73 73 73 73 73 73 73 72 72 72 72 72 72 72 71 71 71 71 71 71 71 71 71 70 70 70 70 70 70 70 69 69 69 69 69 69 69 69 69 68 68 68 68 68 67 67 67 67 67 67 66 67 67 67 67 67 67 67 68 68 68 68 68 68 68 68 68 69 69 69 69 69 69 69 69 69 70 70 70 69 69 69 69 69 69 69 69 69 69 69 69 69 69 68 68 68 68 68 68 69 69 70 70 70 70 71 71 71 71 71 71 71 71 71 71 70 70 70 70
69 69 69 69 69 69 69 69 69 69 69 69 69 69 69 69 69 69 69 69 69 68 67 67 66 65 64 64 64 64 64 63 63 -1 -1 -1 -1 -1 -1 -1 -1 -1 -1 -1 -1 -1 -1 -1 -1 -1 -1 -1 -1 -1 -1 -1 -1 -1 -1 -1 -1 -1 63 64 64 66 67 68 69 70 70 71 71 72 72 73 73 73 73 73 73 73 73 73 73 73 72 72 72 72 72 73 72 72 62 62 60 62 61 63 71 74 73 72 72 73 73 74 74 74 74 74 74 74 73 73 73 73 73 73 73 73 73 73 73 73 73 73 73 73 73 73 73 73 73 73 73 73 73 73 73 73 73 73 72 72 72 72 72 72 72 72 71 71 71 71 71 71 71 71 70 70 70 70 70 70 70 69 69 69 69 69 69 69 69 69 68 68 68 68 68 67 67 67 67 67 67 67 67 67 67 67 67 67 67 68 68 68 68 68 68 68 68 68 69 69 69 69 69 69 69 70 70 70 70 70 70 70 70 69 69 69 69 69 69 69 69 70 69 69 69 68 68 68 68 69 69 69 70 70 70 70 71 71 71 71 71 71 71 71 71 71 70 70 70 70
69 69 69 69 69 69 69 69 69 69 69 69 69 69 69 69 69 69 69 69 69 68 68 67 66 66 65 64 64 64 64 64 63 63 -1 -1 -1 -1 -1 -1 -1 -1 -1 -1 -1 -1 -1 -1 -1 -1 -1 -1 -1 -1 -1 -1 -1 -1 -1 -1 -1 -1 -1 -1 64 65 66 68 69 69 70 71 71 71 72 73 73 73 73 73 73 73 73 73 73 73 72 72 72 72 72 72 70 62 60 62 61 60 60 61 60 71 71 72 72 72 74 74 74 74 74 74 74 74 73 73 73 73 73 73 73 73 73 73 73 73 73 73 73 73 73 73 73 73 73 73 73 73 73 73 73 73 73 73 72 72 72 72 72 72 72 72 71 71 71 71 71 71 71 71 70 70 70 70 70 70 70 69 69 69 69 69 69 69 69 68 68 68 68 68 68 67 67 67 67 67 67 67 67 67 67 67 67 67 68 68 68 68 68 68 68 68 68 68 69 69 69 69 69 70 70 70 70 70 70 70 70 70 70 70 70 69 69 69 69 70 70 70 70 69 69 69 69 69 69 69 69 70 70 70 70 70 71 71 71 71 71 71 71 71 71 71 71 70 70 70
69 69 69 69 69 69 69 69 69 69 69 69 69 70 70 70 70 69 69 69 69 69 68 68 67 66 65 64 64 64 64 64 64 63 63 -1 -1 -1 -1 -1 -1 -1 -1 -1 -1 -1 -1 -1 -1 -1 -1 -1 -1 -1 -1 -1 -1 -1 -1 -1 -1 -1 -1 -1 64 65 66 68 68 69 69 70 71 71 72 72 72 73 73 73 73 73 73 73 73 73 72 72 72 72 72 72 60 61 62 62 61 63 63 62 63 71 71 72 72 73 74 74 74 74 74 74 73 73 73 73 73 73 73 73 73 73 73 73 73 73 73 73 73 73 73 73 73 73 73 73 73 73 73 73 73 73 73 73 72 72 72 72 72 72 72 72 72 71 71 71 71 71 71 71 71 70 70 70 70 70 70 70 69 69 69 69 69 69 69 68 68 68 68 68 68 67 67 67 67 67 67 67 67 67 67 67 67 67 68 68 68 68 68 68 68 68 68 68 69 69 69 69 69 70 70 70 70 70 70 70 70 70 70 70 70 70 70 70 70 70 70 70 70 70 69 69 69 69 69 69 69 70 70 70 70 70 71 71 71 71 71 71 71 71 71 71 71 70 70 70
69 69 69 69 69 69 69 69 69 69 70 70 70 70 70 70 70 70 70 70 69 69 69 68 67 67 66 65 65 64 64 64 64 64 63 63 63 63 -1 -1 -1 -1 -1 -1 -1 -1 -1 -1 -1 -1 -1 -1 -1 -1 -1 -1 -1 -1 -1 -1 -1 -1 -1 -1 63 64 66 67 68 68 69 70 70 71 71 72 72 73 73 73 73 73 73 73 73 73 72 72 72 72 72 73 62 60 63 60 60 61 60 62 61 71 71 72 72 73 74 74 74 73 73 73 73 73 73 73 73 73 73 73 73 73 73 73 73 73 73 73 73 73 73 73 73 73 73 73 73 73 73 73 73 73 73 73 72 72 72 72 72 72 72 72 72 71 71 71 71 71 71 71 71 70 70 70 70 70 70 70 70 69 69 69 69 69 69 69 68 68 68 68 68 67 67 67 67 67 67 67 67 67 67 67 67 67 68 68 68 68 68 68 68 68 68 68 69 69 69 69 70 70 70 71 71 71 71 71 71 71 70 70 70 70 70 70 70 70 70 70 70 70 70 69 69 69 69 69 70 70 70 70 70 71 71 71 71 71 71 71 71 71 71 71 71 70 70 70
69 69 69 69 69 69 69 69 69 70 70 70 70 70 70 70 70 70 70 70 70 69 69 69 68 67 66 65 65 65 65 64 64 64 64 64 63 63 63 63 63 -1 -1 -1 -1 -1 -1 -1 -1 -1 -1 -1 -1 -1 -1 63 -1 -1 -1 -1 -1 -1 -1 -1 63 64 65 67 67 68 69 69 70 71 71 72 72 72 73 73 73 73 73 73 73 73 73 72 72 73 73 73 63 62 63 73 73 73 71 71 71 71 72 72 73 73 73 73 73 73 73 73 73 73 73 73 73 73 73 73 73 73 73 73 73 73 73 73 73 73 73 73 73 73 73 73 73 73 73 73 73 73 73 73 72 72 72 72 72 72 72 72 72 72 71 71 71 71 71 71 71 70 70 70 70 70 70 70 70 69 69 69 69 69 69 69 68 68 68 68 68 68 67 67 67 67 67 67 67 67 67 67 67 67 68 68 68 68 68 68 68 68 68 68 69 69 69 69 70 70 70 71 71 71 71 71 71 71 71 71 71 71 71 70 70 70 70 70 70 70 70 70 70 70 70 70 70 70 70 70 70 71 71 71 71 71 71 71 71 71 71 71 71 71 70 70
69 69 69 69 69 69 69 69 70 70 70 70 70 70 70 70 70 70 70 70 70 70 69 69 68 68 67 66 66 65 65 65 65 64 64 64 64 64 64 63 63 63 -1 -1 -1 -1 -1 -1 -1 -1 -1 -1 -1 -1 63 63 63 -1 -1 -1 -1 -1 -1 -1 63 64 65 66 67 67 68 69 70 70 71 72 72 72 73 73 73 73 73 73 73 73 73 73 73 73 73 73 61 60 73 73 73 73 73 73 73 72 72 72 73 73 73 73 73 73 73 73 73 73 73 73 73 73 73 73 73 73 73 73 73 73 73 73 73 73 73 73 73 73 73 73 73 73 73 73 73 73 73 73 72 72 72 72 72 72 72 72 72 72 72 71 71 71 71 71 71 71 70 70 70 70 70 70 70 69 69 69 69 69 69 69 68 68 68 68 68 68 67 67 67 67 67 67 67 67 67 67 67 68 68 68 68 68 68 68 68 68 68 68 69 69 69 69 70 70 71 71 71 71 71 71 71 71 71 71 71 71 71 71 71 71 71 71 70 70 70 70 70 70 70 70 70 70 70 70 71 71 71 71 71 71 71 71 71 71 71 71 71 71 70 70
69 69 69 69 69 69 69 69 70 70 70 70 70 70 70 70 70 70 70 70 70 70 70 69 69 68 68 67 67 66 66 66 66 65 65 64 64 64 64 64 64 63 63 -1 -1 -1 -1 -1 -1 -1 -1 -1 -1 63 63 64 63 63 -1 -1 -1 -1 -1 -1 63 64 64 65 66 67 68 69 69 70 71 71 72 72 73 73 73 73 73 73 73 73 73 73 73 73 73 73 60 60 73 73 73 73 73 73 73 72 72 73 73 73 73 73 73 73 73 73 73 73 73 73 73 72 72 72 72 72 73 73 73 73 73 73 73 73 73 73 73 73 73 73 73 72 72 72 72 72 72 73 72 72 72 72 72 72 72 72 72 72 72 71 71 71 71 71 71 71 70 70 70 70 70 70 70 70 69 69 69 69 69 69 68 68 68 68 68 68 68 67 67 67 67 67 67 67 67 67 68 68 68 68 68 68 68 68 68 68 68 68 69 69 69 69 70 70 71 71 71 71 71 71 71 71 71 71 71 71 71 71 71 71 71 71 71 71 70 70 70 70 70 70 70 70 70 70 71 71 71 71 71 71 71 71 71 71 71 71 71 71 71 70
69 69 69 69 69 69 69 70 70 70 70 70 70 70 70 70 70 70 70 70 70 70 70 70 69 69 68 68 67 67 67 67 66 66 66 65 65 64 64 64 64 64 63 63 63 63 63 63 63 63 63 63 63 63 64 64 64 63 63 -1 -1 -1 -1 -1 -1 63 64 64 65 66 67 68 69 70 70 71 72 72 72 73 73 73 73 72 72 73 73 73 73 73 73 73 73 60 73 73 73 73 73 73 73 73 73 73 73 73 73 72 72 72 72 72 72 72 72 72 72 72 72 72 72 72 72 72 72 73 73 73 73 73 73 73 73 73 73 73 72 72 72 72 72 72 72 72 72 72 72 72 72 72 72 72 72 72 71 71 71 71 71 71 71 71 71 70 70 70 70 70 70 70 69 69 69 69 69 69 69 68 68 68 68 68 68 68 67 67 67 67 67 67 68 68 68 68 68 68 68 68 68 68 68 68 68 68 68 69 69 69 70 70 71 71 71 71 71 71 71 71 71 71 71 71 71 71 71 71 71 71 71 71 71 71 71 70 70 70 70 70 70 71 71 71 71 71 71 71 71 71 71 71 71 71 71 71 71 70
69 69 69 69 69 69 69 70 70 70 70 70 70 70 70 70 70 70 70 70 70 70 70 70 69 69 69 68 68 68 68 67 67 67 66 66 66 65 64 64 64 64 64 64 64 64 64 64 64 64 64 64 64 64 64 64 64 64 63 63 63 -1 -1 -1 -1 -1 63 63 64 65 66 68 69 69 70 71 72 72 72 73 73 73 72 72 72 72 73 73 73 73 73 73 73 73 73 73 73 73 73 73 73 73 73 73 72 72 72 72 72 72 72 72 72 72 72 72 72 72 72 72 72 72 72 72 72 72 73 73 73 73 73 73 73 73 73 72 72 72 72 72 72 72 72 72 72 72 72 72 72 72 72 72 72 72 71 71 71 71 71 71 71 71 71 71 70 70 70 70 70 70 70 69 69 69 69 69 69 69 68 68 68 68 68 68 68 68 67 67 67 68 68 68 68 68 68 68 68 68 68 68 68 68 68 68 68 69 69 69 69 70 70 71 71 71 71 71 71 71 71 71 71 71 71 71 71 71 71 71 71 71 71 71 71 71 71 70 70 70 71 71 71 71 71 71 71 71 71 71 71 71 71 71 71 71 71 71
69 69 69 69 69 69 69 70 70 70 70 70 70 70 70 70 70 70 70 70 70 70 70 70 70 69 69 69 69 68 68 68 68 68 67 67 66 66 65 65 64 64 64 64 64 64 64 64 64 64 64 64 64 64 64 64 64 64 64 64 63 63 -1 -1 -1 -1 -1 -1 64 64 66 67 68 69 70 71 71 72 72 73 73 72 72 72 72 72 73 73 73 73 73 73 73 73 73 74 73 73 73 73 73 73 73 72 72 72 72 72 72 72 72 72 72 72 72 72 72 72 72 72 72 72 72 72 72 72 72 72 73 73 73 73 73 73 72 72 72 72 72 72 72 72 72 72 72 72 72 72 72 72 72 72 72 72 71 71 71 71 71 71 71 71 71 71 70 70 70 70 70 70 70 69 69 69 69 69 69 69 69 68 68 68 68 68 68 68 68 67 68 68 68 68 68 68 68 68 68 68 68 68 68 68 68 68 68 68 69 69 69 70 70 71 71 71 71 71 71 71 71 71 71 71 71 71 71 71 71 71 71 71 71 71 71 71 71 70 70 71 71 71 71 71 71 71 71 71 71 71 71 71 71 71 71 71 71 71
69 69 69 69 69 69 70 70 70 70 70 70 70 70 71 71 71 71 71 70 70 70 70 70 70 70 69 69 69 69 69 68 68 68 68 68 67 67 66 65 65 65 65 65 65 65 65 65 65 65 65 65 65 64 64 64 64 64 64 64 63 63 -1 -1 -1 -1 -1 -1 63 64 66 67 68 69 70 71 71 71 72 72 72 72 72 72 72 72 72 73 73 73 73 73 73 73 73 73 73 73 73 73 73 73 72 72 72 72 72 72 72 72 72 72 72 72 72 72 72 72 72 72 72 72 72 72 72 72 72 72 72 72 72 72 72 72 72 72 72 72 72 72 72 72 72 72 72 72 72 72 72 72 72 72 71 71 71 71 71 71 71 71 71 71 71 71 70 70 70 70 70 70 70 69 69 69 69 69 69 69 69 68 68 68 68 68 68 68 68 68 68 68 68 68 68 68 68 68 68 68 68 68 68 68 68 68 68 69 69 69 70 70 70 71 71 71 71 71 71 71 71 71 71 71 71 71 71 71 71 71 71 71 71 71 71 71 71 71 71 71 71 71 71 71 71 71 71 71 71 71 71 71 71 71 71 71 71 71
69 69 69 69 69 69 70 70 70 70 70 70 70 70 71 71 71 71 71 70 70 70 70 70 70 70 70 69 69 69 69 69 69 69 69 68 68 67 67 66 66 66 66 66 66 66 65 65 65 65 65 65 65 65 65 65 64 64 64 64 64 63 -1 -1 -1 -1 -1 -1 63 64 65 67 68 69 69 70 71 71 72 72 72 72 72 72 72 72 72 72 73 73 73 73 73 73 73 73 73 73 73 73 73 72 72 72 72 72 72 72 72 72 72 72 72 72 72 72 72 72 72 72 72 72 72 72 72 72 72 72 72 72 72 72 72 72 72 72 72 72 72 72 72 72 72 72 72 72 72 72 72 72 72 71 71 71 71 71 71 71 71 71 71 71 71 70 70 70 70 70 70 70 70 70 69 69 69 69 69 69 69 68 68 68 68 68 68 68 68 68 68 68 68 68 68 68 68 68 68 68 68 68 68 68 68 68 68 69 69 70 70 70 70 70 71 71 71 71 71 71 71 72 72 72 72 72 72 72 72 72 72 71 71 71 71 71 71 71 71 71 71 71 71 71 71 71 71 71 71 71 71 71 71 71 71 71 71 71
69 69 69 69 69 69 70 70 70 70 70 70 70 71 71 71 71 71 71 71 70 70 70 70 70 70 70 70 70 70 69 69 69 69 69 69 69 68 67 67 67 67 67 67 66 66 66 66 66 66 66 66 66 66 65 65 65 64 64 64 64 63 -1 -1 -1 -1 -1 -1 63 64 65 67 67 68 69 70 70 71 71 71 72 72 72 72 72 72 72 72 72 73 73 73 73 73 73 73 73 73 73 73 72 72 72 72 72 72 72 72 72 72 72 72 72 72 72 72 72 72 72 72 72 72 72 72 72 72 72 72 72 72 72 72 72 72 72 72 72 72 72 72 72 72 72 72 72 72 72 72 72 72 72 71 71 71 71 71 71 71 71 71 71 71 71 70 70 70 70 70 70 70 70 70 69 69 69 69 69 69 69 69 68 68 68 68 68 68 68 68 68 68 68 68 68 68 68 68 68 68 68 68 68 68 68 68 68 69 69 70 70 70 70 70 70 71 71 71 71 71 72 72 72 72 72 72 72 72 72 72 72 72 72 71 71 71 71 71 71 71 71 71 71 71 71 71 71 71 71 71 71 71 71 71 71 71 71 71
69 69 69 69 69 69 70 70 70 70 70 70 70 71 71 71 71 71 71 71 70 70 70 70 70 70 70 70 70 70 70 70 70 70 70 70 69 69 68 68 68 68 68 67 67 67 67 67 67 67 67 67 66 66 66 66 65 65 64 64 64 63 -1 -1 -1 -1 -1 -1 63 64 65 66 67 68 69 70 70 70 71 71 71 71 72 72 72 72 72 72 72 72 72 72 73 73 73 73 73 73 73 72 72 72 72 72 72 72 72 72 72 72 71 71 71 71 71 71 72 72 72 72 72 72 72 72 72 72 72 72 72 72 72 72 72 72 72 72 72 72 72 72 72 72 72 72 72 72 72 72 72 72 71 71 71 71 71 71 71 71 71 71 71 70 70 70 70 70 70 70 70 70 70 70 70 69 69 69 69 69 69 69 69 68 68 68 68 68 68 68 68 68 68 68 68 68 68 68 68 68 68 68 68 68 68 68 68 69 70 71 70 70 70 70 70 71 71 71 71 71 72 72 72 72 72 72 72 72 72 72 72 72 72 72 71 71 71 71 71 71 71 71 71 71 71 71 71 71 71 71 71 71 71 71 71 71 71 71
69 69 69 69 69 69 70 70 70 70 70 70 70 71 71 71 71 71 71 71 71 71 71 71 70 70 70 70 70 70 70 70 70 70 70 70 69 69 69 68 68 68 68 68 68 68 67 67 67 67 67 67 67 67 66 66 66 65 65 64 64 63 -1 -1 -1 -1 -1 -1 63 64 65 66 67 68 68 69 70 70 70 71 71 71 72 72 72 72 72 72 72 72 72 72 72 72 73 73 73 72 72 72 72 72 72 72 72 72 72 72 72 71 71 71 71 71 71 71 71 71 72 72 72 72 72 72 72 72 72 72 72 72 72 72 72 72 72 72 72 72 72 72 72 72 72 72 72 72 72 72 72 71 71 71 71 71 71 71 71 71 71 71 71 70 70 70 70 70 70 70 70 70 70 70 70 69 69 69 69 69 69 69 69 68 68 68 68 68 68 68 68 68 68 68 68 68 68 68 68 68 68 68 68 68 68 68 68 69 69 70 70 70 70 69 70 70 71 71 71 71 72 72 72 72 72 72 72 72 72 72 72 72 72 72 71 71 71 71 71 71 71 71 71 71 71 71 71 71 71 71 71 71 71 71 71 72 72 72
69 69 69 69 69 69 70 70 70 70 70 70 70 71 71 71 71 71 71 71 71 71 71 71 71 70 70 70 70 70 70 70 70 70 70 70 70 69 69 69 68 68 68 68 68 68 68 68 68 68 68 68 68 67 67 67 66 65 65 64 64 63 -1 -1 -1 -1 -1 -1 63 64 64 66 66 67 68 69 69 70 70 71 71 71 71 72 72 72 72 72 72 72 72 72 72 72 72 72 72 72 72 72 72 72 72 72 72 72 72 71 71 71 71 71 71 71 71 71 71 71 71 71 72 72 72 72 72 72 72 71 72 72 72 72 72 72 72 72 72 72 72 72 72 72 72 72 72 72 72 72 71 71 71 71 71 71 71 71 71 71 71 71 70 70 70 70 70 70 70 70 70 70 70 70 70 70 69 69 69 69 69 69 69 68 68 68 68 68 68 68 68 68 68 68 68 68 68 68 68 68 68 68 68 68 68 68 68 68 69 69 69 69 69 69 70 70 70 71 71 71 71 72 72 72 72 72 72 72 72 72 72 72 72 72 71 71 71 71 71 71 71 71 71 71 71 71 71 71 71 71 71 71 71 71 72 72 74 76
69 69 69 69 69 69 70 70 70 70 70 70 70 71 71 71 71 71 71 71 71 71 71 71 71 71 70 70 70 70 70 70 70 70 70 70 70 70 69 69 69 69 69 68 68 68 68 68 68 68 68 68 68 68 67 67 66 66 65 65 64 63 -1 -1 -1 -1 -1 -1 63 64 64 65 66 67 68 68 69 69 70 70 71 71 71 72 72 72 72 72 72 72 72 72 72 72 72 72 72 72 72 72 72 72 72 72 72 72 71 71 71 71 71 71 71 71 71 71 71 71 71 71 71 71 71 71 71 71 71 71 71 72 72 72 72 72 72 72 72 72 72 72 72 72 72 72 72 72 72 71 71 71 71 71 71 71 71 71 71 71 71 70 70 70 70 70 70 70 70 70 70 70 70 70 70 70 69 69 69 69 69 69 69 69 69 69 68 68 68 68 68 68 68 68 68 68 68 68 68 68 68 68 68 68 68 68 68 68 68 69 69 69 69 69 69 70 70 70 71 71 71 72 72 72 72 72 72 72 72 72 72 72 72 72 71 71 71 71 71 71 71 71 71 71 71 71 71 71 71 71 71 71 71 71 72 75 80 81
69 69 69 69 69 69 70 70 70 70 70 70 70 71 71 71 71 71 71 71 71 71 71 71 71 71 70 70 70 70 70 70 70 70 70 70 70 70 70 69 69 69 69 69 69 69 68 68 69 69 69 69 69 68 68 67 67 66 65 65 64 63 -1 -1 -1 -1 -1 -1 63 64 64 65 66 67 67 68 68 69 70 70 70 71 71 72 72 72 72 72 72 72 72 72 72 72 72 72 72 72 72 72 72 72 72 72 72 71 71 71 71 71 71 71 71 71 71 71 71 71 71 71 71 71 71 71 71 71 71 71 71 71 71 72 72 72 72 72 72 72 72 72 72 72 72 72 72 72 71 71 71 71 71 71 71 71 71 71 71 71 71 70 70 70 70 70 70 70 70 70 70 70 70 70 70 70 69 69 69 69 69 69 69 69 69 69 69 69 69 69 68 68 68 68 68 68 68 68 68 68 68 68 68 68 68 68 68 68 68 68 68 68 69 69 69 69 70 70 71 71 71 72 72 72 72 72 72 72 72 72 72 72 72 72 71 71 71 71 71 71 71 71 71 71 71 71 71 71 71 71 71 71 71 71 72 81 82 83
69 69 69 69 69 69 70 70 70 70 70 70 70 70 71 71 71 71 71 71 71 71 71 71 71 71 71 70 70 70 70 70 70 70 70 70 70 70 70 70 69 69 69 69 69 69 69 68 69 69 69 69 69 68 68 67 67 66 65 65 64 63 -1 -1 -1 -1 -1 -1 -1 63 64 64 65 66 67 68 68 69 69 70 70 71 71 71 71 71 72 72 72 72 72 72 72 72 72 72 72 72 72 72 72 72 72 72 71 71 71 71 71 71 71 71 71 71 71 71 71 71 71 71 71 71 71 71 71 71 71 71 71 71 72 72 72 72 72 72 72 72 72 72 72 72 72 72 72 72 71 71 71 71 71 71 71 71 71 71 71 71 71 70 70 70 70 70 70 70 70 70 70 70 70 70 70 70 70 69 69 69 69 69 69 69 69 69 69 69 69 69 69 69 68 68 68 68 68 68 68 68 68 68 68 68 68 68 68 68 68 68 68 68 69 69 69 70 70 70 71 71 71 72 72 72 72 72 72 72 72 72 72 72 72 72 71 71 71 71 71 70 70 70 70 70 70 70 70 70 70 70 70 71 71 71 72 78 81 82
69 69 69 69 69 69 70 70 70 70 70 70 70 70 71 71 71 71 71 71 71 71 71 71 71 71 71 70 70 70 70 70 70 70 70 70 70 70 70 70 69 69 69 69 69 69 69 69 69 69 69 69 69 68 68 67 67 66 65 64 64 63 -1 -1 -1 -1 -1 -1 -1 63 63 64 65 66 67 68 68 69 69 70 70 70 71 71 71 71 71 71 71 72 72 72 72 72 72 72 72 72 72 72 71 71 71 71 71 71 71 71 71 71 71 71 71 71 71 71 71 71 71 71 71 71 71 71 71 71 71 71 71 71 72 72 72 72 72 72 72 72 72 72 72 72 72 72 72 71 71 71 71 71 71 71 71 71 71 71 71 71 71 70 70 70 70 70 70 70 70 70 70 70 70 70 70 70 70 69 69 69 69 69 69 69 69 69 69 69 69 69 69 69 69 69 68 68 68 68 68 68 68 68 68 68 68 68 68 68 68 68 68 69 69 69 69 70 70 70 71 71 71 72 72 72 72 72 72 72 72 72 72 72 72 71 71 71 71 70 70 70 70 70 70 70 70 70 70 70 70 70 70 70 71 71 72 75 79 81
69 69 69 69 69 69 70 70 70 70 70 70 70 70 71 71 71 71 71 71 71 71 71 71 71 71 71 70 70 70 70 70 70 70 70 70 70 70 70 70 69 69 69 69 69 69 69 69 69 69 69 69 69 68 68 68 67 66 65 64 64 63 -1 -1 -1 -1 -1 -1 -1 -1 63 63 64 65 66 67 68 68 69 70 70 70 71 71 71 71 71 71 71 71 71 72 72 72 72 72 72 72 72 71 71 71 71 71 71 71 71 71 71 71 71 71 71 71 71 71 71 71 71 71 71 71 71 71 71 71 71 71 71 72 72 72 72 72 72 72 72 72 72 72 72 72 72 72 71 71 71 71 71 71 71 71 71 71 71 71 71 71 71 70 70 70 70 70 70 70 70 70 70 70 70 70 70 70 70 69 69 69 69 69 69 69 69 69 69 69 69 69 69 69 69 69 69 69 68 68 68 69 69 69 69 68 68 68 68 68 68 68 68 69 69 69 69 70 70 70 71 71 71 72 72 72 72 72 72 72 72 72 72 72 72 71 71 71 70 70 70 70 70 70 70 70 70 70 70 70 70 70 70 70 70 71 72 74 77 79
69 69 69 69 69 69 70 70 70 70 70 70 70 70 71 71 71 71 71 71 71 71 71 71 71 71 71 71 70 70 70 70 70 70 70 70 70 70 70 70 70 69 69 69 69 69 69 69 69 69 69 69 69 68 68 68 67 66 65 64 64 63 -1 -1 -1 -1 -1 -1 -1 -1 -1 -1 64 65 66 67 68 68 69 69 70 70 71 71 71 71 71 71 71 71 71 71 71 72 72 72 72 72 71 71 71 71 71 71 71 71 71 71 71 71 71 71 71 71 71 71 71 71 71 71 71 71 71 71 71 71 71 71 71 72 72 72 72 72 72 72 72 72 72 72 72 72 72 71 71 71 71 71 71 71 71 71 71 71 71 71 71 71 71 70 70 70 70 70 70 70 70 70 70 70 70 70 70 70 70 70 69 69 69 69 69 69 69 69 69 69 69 69 69 69 69 69 69 69 69 68 69 69 69 69 69 69 68 68 68 68 68 68 68 69 69 69 69 70 70 70 71 71 71 72 72 72 72 72 72 72 72 72 72 72 72 71 71 71 70 70 70 70 70 69 69 69 69 69 69 69 69 69 70 70 70 71 72 74 76 78
68 68 68 69 69 69 69 70 70 70 70 70 70 70 70 71 71 71 71 71 71 71 71 71 71 71 71 71 71 70 70 70 70 70 70 70 70 70 70 70 70 69 69 69 69 69 69 69 69 69 69 69 69 68 68 68 67 66 65 64 64 63 -1 -1 -1 -1 -1 -1 -1 -1 -1 -1 64 64 66 67 68 68 69 69 70 70 70 71 71 71 71 71 71 71 71 71 71 71 71 71 71 71 71 71 71 71 71 71 71 71 71 71 71 71 71 71 71 71 71 71 71 71 71 71 71 71 71 71 71 71 71 71 72 72 72 72 72 72 72 72 72 72 72 72 72 72 72 72 72 72 71 71 71 71 71 71 71 71 71 71 71 71 71 71 71 71 71 70 70 70 70 71 70 70 70 70 70 70 70 70 70 69 69 69 69 69 69 69 69 69 69 69 69 69 69 69 69 69 69 69 69 69 69 69 69 69 69 69 69 69 69 69 69 69 69 69 70 70 70 71 71 71 72 72 72 72 72 72 72 72 72 72 71 71 71 71 71 70 70 70 70 70 70 69 69 69 69 69 69 69 69 69 70 70 70 71 72 74 76 77
67 67 68 68 69 69 69 69 70 70 70 70 70 70 70 71 71 71 71 71 71 71 71 71 71 71 71 71 71 71 70 70 70 70 70 70 70 70 70 70 70 69 69 69 69 69 69 69 69 69 69 69 69 68 68 68 67 66 65 64 64 63 -1 -1 -1 -1 -1 -1 -1 -1 -1 -1 63 64 66 67 67 68 69 69 69 70 70 70 70 70 70 71 71 71 71 71 71 71 71 71 71 71 71 71 71 71 71 71 71 71 71 71 71 71 71 71 71 71 71 71 71 71 71 71 71 71 71 71 71 71 71 72 72 72 72 72 72 72 72 72 72 72 72 72 72 72 72 72 72 72 72 71 71 71 71 71 71 71 71 71 71 71 71 71 71 71 71 71 71 71 71 71 71 71 71 71 70 70 70 70 70 70 69 69 69 69 69 69 69 69 69 69 69 69 69 69 69 69 69 69 69 69 69 69 69 69 69 69 69 69 69 69 69 69 69 70 70 71 71 72 72 72 72 72 72 72 71 71 71 71 71 71 71 71 71 71 70 70 70 70 70 70 70 69 69 69 69 69 69 69 69 69 70 70 71 71 72 74 75 77
66 67 67 68 68 69 69 69 70 70 70 70 70 70 70 71 71 71 71 71 71 71 71 71 71 71 71 71 71 71 71 71 71 70 70 70 70 70 70 70 70 69 69 69 69 69 69 69 69 69 69 69 69 68 68 67 67 66 65 64 64 63 -1 -1 -1 -1 -1 -1 -1 -1 -1 -1 63 64 65 67 67 68 68 69 69 70 70 70 70 70 70 70 70 70 70 70 71 71 71 71 71 71 71 71 71 71 71 71 71 71 71 71 71 71 71 70 71 71 71 71 71 71 71 71 71 71 71 71 71 71 71 72 72 72 72 72 72 72 72 72 72 72 72 72 72 72 72 72 72 72 72 72 71 71 71 71 71 71 71 71 71 71 71 71 71 71 71 71 71 71 71 71 71 71 71 71 71 70 70 70 70 70 70 69 69 69 69 69 69 69 69 69 69 69 69 69 69 69 69 69 69 69 69 69 69 69 69 69 69 69 69 70 70 70 70 70 71 71 72 73 72 72 72 72 72 71 71 71 71 71 71 71 71 71 71 70 70 70 70 70 70 70 70 69 69 69 69 69 69 69 69 69 70 70 71 71 72 74 75 76
64 65 66 67 68 68 69 69 69 70 70 70 70 70 70 70 71 71 71 71 71 71 71 71 71 71 71 71 71 71 71 71 71 71 71 70 70 70 70 70 70 69 69 69 69 69 69 69 69 69 69 69 69 68 68 67 67 66 65 64 64 63 -1 -1 -1 -1 -1 -1 -1 -1 -1 -1 63 64 65 66 67 68 68 69 69 69 70 70 70 70 70 70 70 70 70 70 70 70 70 70 70 71 71 71 71 71 71 71 71 71 71 70 70 70 70 70 71 71 71 71 71 71 71 71 71 71 71 71 71 71 72 72 72 72 72 72 72 72 72 72 72 72 72 72 72 72 72 72 72 72 72 72 71 71 71 71 71 71 71 71 71 71 71 71 71 71 71 71 71 71 71 71 71 71 71 71 71 71 70 70 70 70 70 70 70 70 69 69 69 69 69 69 69 69 69 69 69 69 69 69 69 69 69 69 69 69 69 69 70 70 70 70 70 70 70 70 71 72 73 79 75 72 72 72 71 71 71 71 71 71 71 70 70 70 70 70 70 70 70 70 70 70 70 69 69 69 69 69 69 69 69 69 70 70 71 72 73 74 75 76
64 64 65 66 67 67 68 69 69 69 69 70 70 70 70 70 71 71 71 71 71 71 71 71 71 71 71 71 71 71 71 71 71 71 71 70 70 70 70 69 69 69 69 69 69 69 69 69 69 69 69 69 68 68 67 67 66 65 65 64 64 63 -1 -1 -1 -1 -1 -1 -1 -1 -1 -1 63 64 65 66 67 67 68 69 69 69 69 70 70 70 70 70 70 70 70 70 70 70 70 70 70 70 70 70 70 71 71 71 71 70 70 70 70 70 70 70 70 70 70 71 70 70 70 70 71 71 71 71 71 71 71 72 72 72 72 72 72 72 72 72 72 72 72 72 72 72 72 72 72 72 72 72 72 71 71 71 71 71 71 71 71 71 71 71 71 71 71 71 71 71 71 71 71 71 71 71 71 71 71 70 70 70 70 70 70 70 70 70 70 70 69 69 69 69 69 69 69 69 69 69 69 69 70 70 70 70 70 70 70 70 71 71 71 71 71 71 72 73 77 79 75 73 72 72 71 71 71 71 71 71 71 71 70 70 70 70 70 70 70 70 70 70 70 70 69 69 69 69 69 69 70 70 70 71 71 72 73 74 75 76
64 64 64 65 66 66 67 68 68 68 69 69 70 70 70 70 70 71 71 71 71 71 71 71 71 71 71 71 71 71 71 71 71 71 71 70 70 70 69 69 69 69 69 69 69 69 69 69 69 69 69 68 68 67 67 67 66 65 65 64 64 63 -1 -1 -1 -1 -1 -1 -1 -1 -1 -1 63 64 65 66 66 67 68 68 69 69 69 70 70 70 70 70 70 70 70 70 70 70 70 70 70 70 70 70 70 70 70 70 70 70 70 70 70 70 70 70 70 70 70 70 70 70 70 70 71 71 71 71 71 71 71 72 72 72 72 72 72 72 72 72 72 72 72 72 72 72 72 72 72 72 72 72 72 72 71 71 72 72 72 72 72 72 71 71 71 71 71 71 71 71 71 71 71 71 71 71 71 71 71 70 70 70 70 70 70 70 70 70 70 70 70 70 70 69 69 69 69 69 70 70 70 70 70 70 70 70 70 70 71 71 71 72 72 72 72 73 75 77 78 80 76 73 72 72 71 71 71 71 71 71 71 71 71 70 70 70 70 70 70 70 70 70 70 70 70 70 69 69 70 70 70 70 71 71 72 73 73 74 75 75
64 64 64 64 64 65 66 66 67 68 68 69 69 70 70 70 70 70 71 71 71 71 71 71 71 71 71 71 71 71 71 71 71 71 71 70 70 70 69 69 69 69 69 69 69 69 69 69 69 68 68 68 67 67 67 66 66 65 64 64 63 63 -1 -1 -1 -1 -1 -1 -1 -1 -1 -1 63 64 64 65 66 67 67 68 68 69 69 69 69 69 69 69 69 70 70 70 70 70 70 70 70 70 70 70 70 70 70 70 70 70 70 70 70 70 70 70 70 70 70 70 70 70 70 70 71 71 71 71 71 71 71 72 72 72 72 72 72 72 72 72 72 72 72 72 72 72 72 72 72 72 72 72 72 72 72 72 72 72 72 72 72 72 72 72 72 71 71 71 71 71 71 71 71 71 71 71 71 71 71 70 70 70 70 70 70 70 70 70 70 70 70 70 70 70 70 70 70 70 70 70 70 70 70 71 71 71 71 71 71 72 72 72 73 74 76 77 78 79 79 80 76 74 72 71 71 71 71 71 71 71 71 71 71 70 70 70 70 70 70 70 70 70 70 70 70 70 70 69 70 70 71 71 71 72 72 73 74 74 74 75
63 63 64 64 64 64 64 64 66 67 68 68 69 69 70 70 70 70 70 71 71 71 71 71 71 71 71 71 71 71 71 71 71 71 71 70 70 69 69 68 68 68 68 68 69 69 69 69 69 68 68 67 67 67 66 66 65 65 64 64 63 63 -1 -1 -1 -1 -1 -1 -1 -1 -1 -1 63 64 64 65 66 66 67 68 68 68 69 69 69 69 69 69 69 69 69 69 70 70 70 70 70 70 70 70 70 70 70 70 70 70 70 70 70 70 70 70 70 70 70 70 70 70 70 70 70 71 71 71 71 71 71 71 72 72 72 72 72 72 72 72 72 72 72 72 72 72 72 72 72 72 72 72 72 72 72 72 72 72 72 72 72 72 72 72 72 72 72 72 71 71 71 71 71 71 71 71 71 71 71 71 71 71 71 71 71 71 71 71 70 70 70 70 70 70 70 70 70 70 70 70 70 71 71 71 71 71 71 71 72 72 73 74 75 76 78 79 80 80 80 80 77 74 72 71 71 71 71 71 71 71 71 71 71 71 70 70 70 70 70 70 70 70 70 70 70 70 70 70 70 71 71 72 72 72 73 74 74 74 74 74
63 63 63 63 64 64 64 64 65 66 67 67 68 69 69 70 70 70 70 71 71 71 71 71 71 71 71 71 71 71 71 71 71 71 70 70 70 69 69 68 68 68 68 68 68 68 68 68 68 68 67 67 66 66 66 65 65 64 64 63 63 -1 -1 -1 -1 -1 -1 -1 -1 -1 -1 -1 63 64 64 65 66 66 67 68 68 68 69 69 69 69 69 69 69 69 69 69 69 69 69 69 70 70 70 70 70 70 70 70 70 70 70 70 70 70 70 70 70 70 70 70 70 70 70 70 70 71 71 71 71 71 71 72 72 72 72 72 72 72 72 72 72 72 72 72 72 72 72 72 72 72 72 72 72 72 72 72 72 72 72 73 72 72 72 72 72 72 72 72 71 71 71 71 71 71 71 71 71 71 71 71 71 71 71 71 71 71 71 71 71 70 70 70 70 70 70 70 70 70 71 71 71 71 71 71 71 71 72 72 72 73 74 75 76 77 78 79 79 79 80 80 77 74 72 72 71 71 71 71 71 71 71 71 71 71 71 71 70 70 70 70 70 70 70 70 70 70 70 70 71 71 72 72 72 73 73 74 74 74 74 74
-1 -1 -1 63 63 63 64 64 64 64 65 66 67 68 69 70 70 70 70 70 71 71 71 71 71 71 71 71 71 71 71 71 71 71 70 70 70 69 69 68 68 68 68 68 68 68 68 68 67 67 67 66 66 65 65 65 64 64 63 63 -1 -1 -1 -1 -1 -1 -1 -1 -1 -1 -1 63 64 64 65 65 66 66 67 67 68 68 68 69 69 69 69 69 69 69 69 69 69 69 69 69 69 69 69 70 70 70 70 70 70 70 70 70 70 70 70 70 70 70 70 70 70 70 70 70 70 71 71 71 71 71 71 72 72 72 72 72 72 72 72 72 73 73 73 73 73 72 72 72 72 72 72 72 72 72 72 72 72 73 73 73 73 73 73 73 72 72 72 72 72 71 71 71 71 71 71 71 71 71 71 71 71 71 71 71 71 71 71 71 71 71 71 71 71 71 71 71 71 71 71 71 71 71 71 71 72 72 72 72 73 74 75 76 76 77 78 79 79 79 79 79 77 74 73 72 72 71 71 71 71 71 71 71 71 71 71 71 71 71 70 70 70 70 71 71 71 71 71 71 72 72 72 73 73 73 74 74 74 74 74 74
-1 -1 -1 -1 -1 63 63 63 64 64 64 65 66 67 68 69 69 70 70 70 71 71 71 71 71 71 71 71 71 71 71 71 71 71 70 70 70 69 69 68 68 68 68 68 67 67 67 67 67 66 66 66 65 65 64 64 64 63 -1 -1 -1 -1 -1 -1 -1 -1 -1 -1 -1 -1 63 63 64 64 65 65 66 66 67 67 68 68 68 68 69 69 69 69 69 69 69 69 69 69 69 69 69 69 69 69 69 69 70 70 70 70 69 69 69 69 69 70 70 70 70 70 70 70 70 70 70 71 71 71 71 71 71 72 72 72 72 72 72 72 72 73 73 73 73 73 73 73 72 72 72 72 72 72 72 72 72 72 73 73 74 74 74 74 74 73 73 72 72 72 72 71 71 71 71 71 71 71 71 71 71 71 71 71 71 71 71 71 71 71 71 71 71 71 71 71 71 71 71 71 71 71 71 72 72 72 72 72 72 73 74 75 76 77 77 78 78 79 79 79 79 78 76 75 73 72 72 72 71 71 71 71 71 71 71 71 71 71 71 71 71 71 71 71 71 71 71 72 72 73 73 73 73 73 73 74 74 74 74 74 74 74
-1 -1 -1 -1 -1 -1 -1 63 63 64 64 64 65 66 68 69 69 70 70 70 71 71 71 71 71 71 71 71 71 71 71 71 71 71 70 70 70 69 69 68 68 68 67 67 67 67 66 66 66 65 65 65 65 64 64 64 63 -1 -1 -1 -1 -1 -1 -1 -1 -1 -1 -1 -1 63 63 64 64 65 65 66 66 66 67 67 67 68 68 68 68 68 68 69 69 69 69 69 69 69 69 69 69 69 69 69 69 69 69 69 69 69 69 69 69 69 69 69 69 70 70 70 70 70 70 70 70 71 71 71 71 71 71 72 72 72 72 72 72 72 73 73 73 73 73 73 73 73 73 72 72 72 72 72 72 72 72 72 73 74 75 75 75 75 75 74 74 73 72 72 72 72 71 71 71 71 71 71 71 71 71 71 71 71 71 71 71 71 71 71 71 71 71 71 71 71 71 71 71 72 72 72 72 72 72 72 72 72 73 74 75 76 77 78 78 78 79 79 78 78 78 78 76 75 74 73 72 72 71 71 71 71 71 71 71 71 71 71 71 71 71 71 71 71 71 71 72 72 73 74 74 74 74 74 74 74 74 74 74 74 74 74
-1 -1 -1 -1 -1 -1 -1 -1 63 63 64 64 65 66 67 68 69 69 70 70 70 71 71 71 71 71 71 71 71 71 71 71 71 70 70 70 70 69 69 68 68 68 67 67 67 66 66 65 65 65 65 64 64 64 63 63 -1 -1 -1 -1 -1 -1 -1 -1 -1 -1 -1 -1 -1 63 63 64 64 65 65 66 66 66 67 67 67 67 68 68 68 68 68 68 69 69 69 69 69 69 69 69 69 69 69 69 69 69 69 69 69 69 69 69 69 69 69 69 69 70 70 70 70 70 70 70 70 71 71 71 71 71 71 72 72 72 72 72 72 72 73 73 73 73 73 73 73 73 73 73 73 73 73 73 73 73 73 73 74 75 75 76 76 76 75 75 74 74 73 72 72 72 72 71 71 71 71 71 71 71 71 71 71 71 71 71 71 71 71 71 71 71 71 71 71 71 71 72 72 72 72 72 72 72 72 72 73 74 74 75 75 76 77 78 78 77 77 77 77 77 76 76 75 74 73 72 72 72 71 71 71 71 71 71 71 71 71 71 71 71 71 71 71 71 71 72 72 73 73 74 74 74 74 74 74 74 74 74 74 74 74 74
-1 -1 -1 -1 -1 -1 -1 -1 -1 63 63 64 64 65 66 67 68 69 69 70 70 70 71 71 71 71 71 71 71 71 71 71 71 70 70 70 70 69 69 68 68 68 67 67 66 66 65 65 64 64 64 64 63 63 -1 -1 -1 -1 -1 -1 -1 -1 -1 -1 -1 -1 -1 -1 -1 63 63 64 64 64 65 65 66 66 66 67 67 67 68 68 68 68 68 68 68 68 69 69 69 69 69 69 69 69 69 69 69 69 69 69 69 69 69 69 69 69 69 69 69 69 70 70 70 70 70 70 70 71 71 71 71 71 71 72 72 72 72 72 72 72 72 73 73 73 73 73 73 73 73 73 73 74 74 74 74 74 74 75 75 76 76 77 76 76 76 76 75 75 74 74 73 72 72 72 72 72 71 71 71 71 71 71 71 71 71 71 71 71 72 72 72 72 72 71 72 72 72 72 72 72 72 72 73 73 73 74 74 75 75 76 76 77 77 78 77 77 76 76 75 75 75 75 74 73 73 72 72 72 72 71 71 71 71 71 71 71 71 71 71 71 71 71 71 71 72 72 72 73 74 74 74 74 74 74 74 74 74 74 74 74 74 74
-1 -1 -1 -1 -1 -1 -1 -1 -1 63 63 64 64 65 66 67 68 68 69 69 70 70 70 71 71 71 71 71 71 71 71 71 70 70 70 70 70 69 69 69 68 67 67 66 66 65 65 64 64 64 64 63 63 -1 -1 -1 -1 -1 -1 -1 -1 -1 -1 -1 -1 -1 -1 -1 -1 63 63 64 64 64 65 65 66 66 66 66 67 67 67 68 68 68 68 68 68 68 68 68 68 69 69 69 69 69 69 69 69 69 69 69 69 69 69 69 69 69 69 69 69 69 70 70 70 70 70 70 70 70 71 71 71 71 71 72 72 72 72 72 72 72 72 73 73 73 73 73 73 73 73 73 74 74 75 76 76 76 76 76 76 77 77 77 77 77 77 76 76 76 75 75 74 73 72 72 72 72 72 72 72 71 71 71 71 71 71 71 72 72 72 72 72 72 72 72 72 72 72 72 72 72 72 73 73 74 75 76 76 77 77 77 77 78 78 78 77 76 75 75 74 74 74 74 73 73 72 72 72 72 72 72 72 71 71 71 71 71 71 71 71 71 71 71 71 72 72 72 73 73 74 75 75 74 74 74 74 74 74 74 74 74 74 74
-1 -1 -1 -1 -1 -1 -1 -1 -1 -1 63 63 64 64 65 66 67 68 68 69 69 70 70 71 71 71 71 71 71 71 70 70 70 70 70 70 70 69 69 69 68 67 67 66 65 65 64 64 64 63 63 63 -1 -1 -1 -1 -1 -1 -1 -1 -1 -1 -1 -1 -1 -1 -1 -1 -1 63 63 64 64 64 65 65 65 66 66 66 67 67 67 67 68 68 68 68 68 68 68 68 68 68 68 69 69 69 69 69 69 69 69 69 69 69 69 69 69 69 69 69 69 69 70 70 70 70 70 70 70 70 71 71 71 71 71 72 72 72 72 72 72 72 72 73 73 73 73 74 74 73 73 73 74 75 76 77 77 77 77 78 78 78 78 78 78 78 77 77 77 77 77 76 75 74 73 72 72 72 72 72 72 72 72 71 72 72 72 72 72 72 72 72 72 72 72 72 72 72 72 72 73 73 73 73 74 75 77 79 79 79 79 79 79 79 78 78 77 76 75 74 74 73 73 73 73 72 72 72 69 72 72 72 72 72 72 72 72 71 71 71 71 71 71 71 71 72 72 73 73 74 74 75 75 75 74 74 74 74 74 74 74 74 74 74
-1 -1 -1 -1 -1 -1 -1 -1 -1 -1 63 63 64 64 65 66 67 68 68 69 69 70 70 70 70 70 70 70 70 70 70 70 70 70 70 70 69 69 69 69 68 67 67 66 65 65 64 64 63 63 -1 -1 -1 -1 -1 -1 -1 -1 -1 -1 -1 -1 -1 -1 -1 -1 -1 -1 -1 -1 63 63 64 64 64 65 65 65 66 66 66 66 67 67 67 67 67 68 68 68 68 68 68 68 68 68 68 69 69 69 69 69 69 69 69 69 69 69 69 69 69 69 69 69 69 70 70 70 70 70 70 70 71 71 71 71 71 72 72 72 72 72 72 72 72 73 73 73 73 74 74 74 74 74 74 75 76 78 78 78 78 78 78 78 79 79 78 78 78 77 77 77 77 76 75 74 73 72 72 72 72 72 72 72 72 72 72 72 72 72 72 72 72 72 72 72 72 72 72 72 73 73 73 74 74 74 75 77 78 80 80 80 80 80 79 78 78 77 76 75 74 74 73 73 73 73 72 72 72 72 69 69 72 72 72 72 72 72 72 72 71 71 71 71 71 71 71 72 72 73 73 74 74 75 75 75 75 75 74 74 74 74 74 74 74 74
-1 -1 -1 -1 -1 -1 -1 -1 -1 -1 -1 63 64 64 65 66 67 67 68 69 69 69 70 70 70 70 70 70 70 70 70 70 70 70 70 69 69 69 69 68 68 67 66 66 65 65 64 64 63 -1 -1 -1 -1 -1 -1 -1 -1 -1 -1 -1 -1 -1 -1 -1 -1 -1 -1 -1 -1 -1 -1 63 63 64 64 64 65 65 65 65 66 66 66 66 67 67 67 67 67 68 68 68 68 68 68 68 68 68 68 69 69 69 69 69 69 69 69 69 69 69 69 69 69 69 69 70 70 70 70 70 70 70 71 71 71 71 71 72 72 72 72 72 72 72 72 73 73 73 73 74 74 74 74 74 75 76 77 78 78 78 79 79 79 79 79 80 79 79 78 78 77 77 77 77 75 74 73 73 73 73 72 72 72 72 72 72 72 72 72 72 72 72 72 72 72 72 72 72 73 73 73 73 74 74 75 76 77 78 79 81 81 81 81 81 79 78 77 76 75 75 74 73 73 73 73 72 72 72 72 72 69 69 72 72 72 72 72 72 72 72 71 71 71 71 71 71 72 72 72 73 73 74 74 75 75 75 75 75 75 74 74 74 74 74 74 74
-1 -1 -1 -1 -1 -1 -1 -1 -1 -1 -1 63 64 64 65 66 66 67 68 68 69 69 70 70 70 70 70 70 70 70 70 70 70 69 69 69 69 69 68 68 68 67 66 66 65 64 64 63 63 -1 -1 -1 -1 -1 -1 -1 -1 -1 -1 -1 -1 -1 -1 -1 -1 -1 -1 -1 -1 -1 -1 -1 63 63 64 64 64 64 65 65 65 65 66 66 66 66 67 67 67 67 67 68 68 68 68 68 68 68 68 68 68 69 69 69 69 69 69 69 69 69 69 69 69 69 69 69 70 70 70 70 70 70 71 71 71 71 72 72 72 72 72 72 72 72 73 73 73 73 73 74 74 74 74 74 75 76 77 79 79 79 79 80 80 80 80 81 80 79 79 78 78 77 77 77 75 74 74 73 73 73 73 73 73 73 72 72 72 72 72 72 72 72 72 72 72 73 73 73 73 73 73 74 74 75 76 78 79 80 81 82 81 81 81 81 80 78 77 76 75 74 74 73 73 73 72 72 72 72 72 72 69 69 72 72 72 72 72 72 72 72 72 71 71 71 71 71 72 72 72 73 73 74 74 75 75 75 75 75 75 74 74 74 74 74 74 74
-1 -1 -1 -1 -1 -1 -1 -1 -1 -1 -1 -1 63 64 65 65 66 67 68 68 69 69 69 70 70 70 70 70 70 70 70 69 69 69 69 69 69 69 68 68 67 67 66 66 65 64 64 63 -1 -1 -1 -1 -1 -1 -1 -1 -1 -1 -1 -1 -1 -1 -1 -1 -1 -1 -1 -1 -1 -1 -1 -1 -1 63 63 64 64 64 64 64 65 65 65 66 66 66 66 66 67 67 67 67 67 68 68 68 68 68 68 68 68 68 68 69 69 69 69 69 69 69 69 69 69 69 69 69 70 70 70 70 70 70 71 71 71 71 72 72 72 72 72 72 72 72 73 73 73 73 74 74 74 74 74 74 75 76 78 79 80 80 80 80 81 81 81 82 81 80 79 78 78 78 77 77 76 75 74 74 74 74 74 73 73 73 73 73 73 73 73 73 73 73 73 73 73 73 73 73 73 74 74 74 75 76 78 80 81 81 82 82 82 82 82 82 80 78 76 75 74 74 73 73 73 72 72 72 72 72 72 72 69 69 72 72 72 72 72 72 72 72 72 72 71 71 71 71 72 72 72 73 73 74 74 75 75 75 75 75 75 75 74 74 74 74 74 74
-1 -1 -1 -1 -1 -1 -1 -1 -1 -1 -1 -1 63 64 64 65 66 67 67 68 68 69 69 69 69 69 69 70 69 69 69 69 69 69 69 69 69 68 68 68 67 66 66 65 64 64 63 -1 -1 -1 -1 -1 -1 -1 -1 -1 -1 -1 -1 -1 -1 -1 -1 -1 -1 -1 -1 -1 -1 -1 -1 -1 -1 -1 63 63 63 64 64 64 64 64 65 65 65 66 66 66 66 67 67 67 67 67 68 68 68 68 68 68 68 68 69 69 69 69 69 69 69 69 69 69 69 69 69 69 70 70 70 70 70 70 71 71 71 71 72 72 72 72 72 72 72 73 73 73 73 73 73 74 74 74 74 74 75 76 77 79 79 79 80 80 80 80 81 81 80 80 79 79 78 78 78 77 76 76 75 75 74 74 74 74 74 73 73 73 73 73 73 73 73 73 73 73 73 73 73 74 74 74 74 75 76 77 79 81 81 82 82 83 82 82 82 82 80 78 76 75 74 74 73 73 73 72 72 72 72 72 72 72 69 69 69 72 72 72 72 72 72 72 72 72 72 72 71 71 72 72 72 73 73 73 74 74 74 74 75 75 75 74 74 74 74 74 74 74
-1 -1 -1 -1 -1 -1 -1 -1 -1 -1 -1 -1 63 64 64 65 66 66 67 68 68 68 69 69 69 69 69 69 69 69 69 69 69 69 69 69 68 68 68 67 67 66 65 65 64 63 -1 -1 -1 -1 -1 -1 -1 -1 -1 -1 -1 -1 -1 -1 -1 -1 -1 -1 -1 -1 -1 -1 -1 -1 -1 -1 -1 -1 -1 -1 63 63 64 64 64 64 64 65 65 65 66 66 66 67 67 67 67 67 68 68 68 68 68 68 68 68 69 69 69 69 69 69 69 69 69 69 69 69 69 69 70 70 70 70 70 70 71 71 71 71 72 72 72 72 72 72 73 73 73 73 73 73 73 74 74 74 74 74 75 76 77 79 79 79 79 79 79 80 80 80 80 79 79 79 78 78 78 78 77 77 76 76 75 75 75 74 74 74 74 74 74 74 74 74 74 74 74 73 74 74 74 74 74 74 75 75 76 78 79 81 82 82 82 83 83 82 82 82 80 78 76 75 74 74 73 73 73 72 72 72 72 72 72 72 69 69 69 72 72 72 72 72 72 72 72 72 72 72 72 72 72 72 72 72 73 73 73 74 74 74 74 74 74 74 74 74 74 74 74 74
-1 -1 -1 -1 -1 -1 -1 -1 -1 -1 -1 -1 -1 63 64 65 66 66 67 68 68 68 68 69 69 69 69 69 69 69 69 69 69 69 68 68 68 68 67 67 66 66 65 64 63 63 -1 -1 -1 -1 -1 -1 -1 -1 -1 -1 -1 -1 -1 -1 -1 -1 -1 -1 -1 -1 -1 -1 -1 -1 -1 -1 -1 -1 -1 -1 -1 63 63 63 64 64 64 64 65 65 65 66 66 66 67 67 67 67 67 68 68 68 68 68 68 68 69 69 69 69 69 69 69 69 69 69 69 69 69 70 70 70 70 70 70 71 71 71 71 71 72 72 72 72 72 72 73 73 73 73 73 73 73 73 74 74 74 74 75 76 77 79 79 79 79 79 79 79 79 80 79 79 79 79 79 79 78 78 78 78 78 77 77 76 75 75 75 74 74 74 74 74 74 74 74 74 74 74 74 74 74 74 75 75 75 76 77 78 80 82 82 83 83 83 83 82 82 82 79 77 76 74 74 73 73 73 72 72 72 72 72 72 72 72 69 69 69 72 72 72 72 72 72 72 72 72 72 72 72 72 72 72 72 72 72 72 73 73 73 74 74 74 74 74 74 74 74 74 74 74
-1 -1 -1 -1 -1 -1 -1 -1 -1 -1 -1 -1 -1 63 64 64 65 66 67 68 68 68 68 68 68 69 69 69 69 69 69 69 69 68 68 68 68 67 67 67 66 65 65 64 63 -1 -1 -1 -1 -1 -1 -1 -1 -1 -1 -1 -1 -1 -1 -1 -1 -1 -1 -1 -1 -1 -1 -1 -1 -1 -1 -1 -1 -1 -1 -1 -1 -1 63 63 63 64 64 64 64 65 65 66 66 66 67 67 67 67 67 68 68 68 68 68 68 69 69 69 69 69 69 69 69 69 69 69 69 69 69 70 70 70 70 70 70 71 71 71 71 71 72 72 72 72 72 73 73 73 73 73 73 73 73 73 74 74 74 74 75 76 77 79 78 78 78 78 78 78 79 79 79 79 79 79 79 79 79 79 79 79 79 79 78 77 76 75 75 75 75 75 75 75 75 75 75 75 75 74 75 75 75 75 75 75 76 76 77 79 81 83 83 83 83 83 83 82 82 82 79 77 76 74 74 73 73 73 72 72 72 72 72 72 72 72 69 69 69 72 72 72 72 72 72 72 72 72 72 72 72 72 72 72 72 72 72 72 72 72 73 73 74 74 74 74 74 74 74 74 74 74
-1 -1 -1 -1 -1 -1 -1 -1 -1 -1 -1 -1 -1 63 64 64 65 66 67 67 68 68 68 68 68 68 68 69 69 69 68 68 68 68 68 68 67 67 67 66 65 65 64 63 -1 -1 -1 -1 -1 -1 -1 -1 -1 -1 -1 -1 -1 -1 -1 -1 -1 -1 -1 -1 -1 -1 -1 -1 -1 -1 -1 -1 -1 -1 -1 -1 -1 -1 -1 63 63 64 64 64 64 65 65 66 66 66 66 67 67 67 67 67 68 68 68 68 68 68 69 69 69 69 69 69 69 69 69 69 69 69 69 70 70 70 70 70 70 71 71 71 71 71 71 71 72 72 72 72 73 73 73 73 73 73 73 73 73 74 74 74 75 76 77 78 78 78 78 78 78 78 78 78 78 78 78 78 78 78 78 78 78 79 79 79 78 77 77 76 76 76 76 76 76 76 76 76 75 75 75 75 75 75 75 75 75 76 76 76 78 79 81 83 83 83 83 83 83 82 82 81 79 77 76 74 74 73 73 73 72 72 72 72 72 72 72 72 69 69 69 72 72 72 72 72 72 72 72 72 72 72 72 72 72 72 72 72 72 72 72 72 72 73 73 74 74 74 74 74 74 74 74 74
-1 -1 -1 -1 -1 -1 -1 -1 -1 -1 -1 -1 -1 63 64 64 65 66 66 67 67 68 68 68 68 68 68 68 68 68 68 68 68 68 68 67 67 67 66 66 65 64 64 63 -1 -1 -1 -1 -1 -1 -1 -1 -1 -1 -1 -1 -1 -1 -1 -1 -1 -1 -1 -1 -1 -1 -1 -1 -1 -1 -1 -1 -1 -1 -1 -1 -1 -1 -1 -1 63 63 64 64 64 65 65 65 66 66 66 66 67 67 67 67 68 68 68 68 68 68 69 69 69 69 69 69 69 69 69 69 69 69 70 70 70 70 70 70 70 71 71 71 71 71 71 71 72 72 72 72 72 72 73 73 73 73 73 73 73 73 74 74 61 63 62 77 77 77 77 77 77 77 78 78 78 78 78 78 78 78 78 78 78 78 78 78 78 78 78 78 78 77 77 77 77 77 77 77 76 76 75 75 75 75 75 75 76 76 76 77 78 80 81 83 83 83 83 83 82 82 82 81 79 77 76 74 74 74 73 73 72 72 72 72 72 72 72 72 68 68 72 72 72 72 72 72 72 72 72 72 72 72 72 72 72 72 72 72 72 72 72 72 72 73 73 73 73 74 74 74 74 74 74 74
-1 -1 -1 -1 -1 -1 -1 -1 -1 -1 -1 -1 -1 63 64 64 65 65 66 67 67 67 68 68 68 68 68 68 68 68 68 68 68 68 67 67 67 66 66 65 64 64 63 -1 -1 -1 -1 -1 -1 -1 -1 -1 -1 -1 -1 -1 -1 -1 -1 -1 -1 -1 -1 -1 -1 -1 -1 -1 -1 -1 -1 -1 -1 -1 -1 -1 -1 -1 -1 -1 -1 63 64 64 64 64 65 65 66 66 66 66 66 67 67 67 67 68 68 68 68 68 69 69 69 69 69 69 69 69 69 69 69 69 70 70 70 70 70 70 70 71 71 71 71 71 71 71 71 71 72 72 72 72 72 72 72 73 73 73 73 73 70 60 60 61 60 61 61 62 74 76 77 77 77 78 78 78 77 77 77 77 77 77 77 78 78 78 79 79 79 80 79 79 79 79 78 78 78 78 77 77 76 76 76 76 76 76 76 76 77 77 78 80 82 83 83 83 83 82 82 82 81 81 79 77 76 74 74 74 73 73 73 72 72 72 72 72 72 72 68 68 72 72 72 72 60 60 60 60 60 60 60 72 72 72 72 72 72 72 72 72 72 72 72 73 73 73 73 74 74 74 74 74 74 74
-1 -1 -1 -1 -1 -1 -1 -1 -1 -1 -1 -1 -1 63 63 64 64 65 66 67 67 67 67 67 68 68 68 68 68 68 68 68 67 67 67 67 66 66 65 64 64 63 -1 -1 -1 -1 -1 -1 -1 -1 -1 -1 -1 -1 -1 -1 -1 -1 -1 -1 -1 -1 -1 -1 -1 -1 -1 -1 -1 -1 -1 -1 -1 -1 -1 -1 -1 -1 -1 -1 -1 63 63 64 64 64 65 65 65 66 66 66 66 67 67 67 67 68 68 68 68 68 69 69 69 69 69 69 69 69 69 69 69 70 70 70 70 70 70 70 70 71 71 71 71 71 70 70 70 70 72 72 72 72 72 72 72 72 72 72 73 70 63 63 61 61 61 60 72 72 73 74 76 76 77 78 77 77 77 77 77 77 77 77 77 77 77 78 79 80 81 82 82 82 81 81 81 80 80 80 79 78 77 76 76 76 76 76 77 77 77 77 79 80 82 84 83 83 82 82 82 81 81 81 79 77 76 75 74 74 73 73 73 72 72 72 72 72 72 72 68 68 72 72 72 72 60 50 50 50 50 50 60 72 72 72 72 72 72 72 72 72 72 72 72 72 72 72 73 73 74 74 74 74 74 74
-1 -1 -1 -1 -1 -1 -1 -1 -1 -1 -1 -1 -1 63 63 64 64 65 66 67 67 67 67 67 67 68 68 68 68 68 68 67 67 67 67 66 66 65 64 64 63 63 -1 -1 -1 -1 -1 -1 -1 -1 -1 -1 -1 -1 -1 -1 -1 -1 -1 -1 -1 -1 -1 -1 -1 -1 -1 -1 -1 -1 -1 -1 -1 -1 -1 -1 -1 -1 -1 -1 -1 63 63 64 64 64 65 65 66 66 66 66 67 67 67 68 68 68 68 68 68 68 68 69 69 69 69 69 69 69 69 69 69 70 70 70 70 70 70 70 70 70 71 71 71 71 70 70 70 70 70 72 72 72 72 72 72 72 72 72 72 69 60 63 62 61 63 60 72 73 73 74 76 77 78 79 78 78 77 77 77 77 77 77 77 77 77 78 79 80 82 83 83 83 82 82 82 82 81 81 80 79 78 77 77 77 78 78 78 78 78 78 79 81 82 84 83 83 83 82 82 81 81 80 78 77 76 74 74 74 73 73 73 72 72 72 72 72 72 72 60 60 72 72 60 60 60 50 50 50 50 50 60 60 60 72 72 72 72 72 72 72 72 72 72 73 73 73 73 74 74 74 74 74 74 74
-1 -1 -1 -1 -1 -1 -1 -1 -1 -1 -1 -1 -1 -1 63 64 64 65 66 67 67 67 67 67 67 67 68 68 68 67 67 67 67 66 66 66 65 64 64 63 63 -1 -1 -1 -1 -1 -1 -1 -1 -1 -1 -1 -1 -1 -1 -1 -1 -1 -1 -1 -1 -1 -1 -1 -1 -1 -1 -1 -1 -1 -1 -1 -1 -1 -1 -1 -1 -1 -1 -1 -1 63 63 64 64 64 65 65 66 66 66 67 67 67 68 68 68 68 68 68 68 68 68 69 69 69 69 69 69 69 69 69 70 70 70 70 70 70 70 70 70 70 71 71 71 71 70 70 70 70 70 71 72 72 72 71 71 71 71 71 72 60 61 60 60 62 62 72 72 73 73 74 75 77 78 80 79 78 77 76 76 76 76 76 77 77 78 78 79 81 82 84 84 84 84 84 83 83 83 82 81 80 80 79 79 79 79 79 79 79 78 78 80 81 82 84 83 83 83 83 82 81 80 79 78 76 75 74 74 74 73 73 73 72 72 72 72 72 72 72 72 60 72 72 60 60 60 50 50 50 50 50 60 60 60 72 72 72 72 72 72 72 72 72 73 73 73 73 73 74 74 74 74 74 74 74
-1 -1 -1 -1 -1 -1 -1 -1 -1 -1 -1 -1 -1 -1 63 64 64 65 66 67 67 67 67 67 67 67 67 67 67 67 67 67 66 66 66 65 65 64 63 63 -1 -1 -1 -1 -1 -1 -1 -1 -1 -1 -1 -1 -1 -1 -1 -1 -1 -1 -1 -1 -1 -1 -1 -1 -1 -1 -1 -1 -1 -1 -1 -1 -1 -1 -1 -1 -1 -1 -1 -1 -1 -1 63 64 64 64 65 65 66 66 67 67 67 68 68 69 68 68 68 68 68 68 68 68 69 69 69 69 69 69 69 70 70 70 70 70 70 70 70 70 70 70 71 71 71 71 70 70 70 70 69 69 70 71 71 71 71 71 71 71 69 68 63 62 60 63 73 73 73 73 73 74 74 77 79 81 79 78 77 76 76 76 76 76 77 77 78 78 79 81 83 84 85 85 85 85 85 84 84 84 83 82 82 81 81 81 81 81 80 80 79 79 80 81 83 84 84 83 83 83 82 81 80 78 77 76 75 74 74 74 73 73 73 72 72 72 72 72 72 72 72 60 72 72 60 60 60 50 50 50 50 50 60 60 60 72 72 72 72 72 72 72 72 72 73 73 73 74 74 74 74 74 74 74 74 74
-1 -1 -1 -1 -1 -1 -1 -1 -1 -1 -1 -1 -1 -1 63 64 64 65 66 66 66 67 67 67 67 67 67 67 67 67 67 67 66 66 65 65 64 64 63 -1 -1 -1 -1 -1 -1 -1 -1 -1 -1 -1 -1 -1 -1 -1 -1 -1 -1 -1 -1 -1 -1 -1 -1 -1 -1 -1 -1 -1 -1 -1 -1 -1 -1 -1 -1 -1 -1 -1 -1 -1 -1 -1 63 64 64 64 65 65 66 66 67 67 68 68 69 69 69 69 68 68 68 68 68 68 69 69 69 69 69 69 70 70 70 70 70 70 70 70 70 70 70 70 70 71 71 71 71 70 70 69 69 69 69 69 70 70 70 70 70 70 69 68 68 68 62 69 72 73 73 73 73 74 75 77 79 81 80 78 77 76 76 76 76 76 77 77 78 78 79 82 84 85 86 86 86 87 86 86 86 85 85 85 84 84 84 84 83 83 82 81 80 79 81 82 83 84 84 83 83 83 82 81 79 78 77 76 75 74 74 74 73 73 73 73 72 72 72 72 72 72 72 60 72 72 72 72 60 50 50 50 50 50 60 72 72 72 72 72 72 72 72 72 72 72 73 73 74 74 74 74 74 74 74 74 74 74
-1 -1 -1 -1 -1 -1 -1 -1 -1 -1 -1 -1 -1 -1 63 64 64 65 65 66 66 66 67 67 67 67 67 67 67 67 66 66 66 65 64 64 64 63 -1 -1 -1 -1 -1 -1 -1 -1 -1 -1 -1 -1 -1 -1 -1 -1 -1 -1 -1 -1 -1 -1 -1 -1 -1 -1 -1 -1 -1 -1 -1 -1 -1 -1 -1 -1 -1 -1 -1 -1 -1 -1 -1 -1 63 64 64 64 65 65 66 66 67 67 68 68 68 69 69 68 68 68 68 68 68 68 69 69 69 69 69 69 70 70 70 70 70 70 70 70 70 70 70 70 70 71 71 71 71 71 70 69 69 69 69 69 69 69 69 69 69 68 68 68 68 68 68 72 72 72 73 73 74 74 74 78 79 81 80 79 77 75 76 76 76 76 77 77 78 78 79 82 84 87 87 87 87 87 87 87 86 86 86 85 85 85 84 84 84 84 83 82 81 81 81 82 82 83 83 82 82 82 81 80 79 78 77 76 75 74 74 74 73 73 73 72 72 72 72 72 72 72 72 60 72 72 72 72 60 60 60 60 60 60 60 72 72 72 72 72 72 72 72 72 72 72 73 73 73 74 74 74 74 74 74 74 74 74
-1 -1 -1 -1 -1 -1 -1 -1 -1 -1 -1 -1 -1 -1 63 64 64 64 65 66 66 66 66 67 67 67 67 67 66 66 66 66 65 64 64 64 63 -1 -1 -1 -1 -1 -1 -1 -1 -1 -1 -1 -1 -1 -1 -1 -1 -1 -1 -1 -1 -1 -1 -1 -1 -1 -1 -1 -1 -1 -1 -1 -1 -1 -1 -1 -1 -1 -1 -1 -1 -1 -1 -1 -1 -1 63 64 64 64 65 65 66 66 67 67 67 68 68 69 68 68 68 68 68 68 68 68 69 69 69 69 69 70 70 70 70 70 70 70 70 70 70 70 70 70 70 71 71 71 71 71 70 69 69 69 69 69 69 69 69 69 68 68 68 68 69 69 71 71 72 72 72 73 74 74 74 78 80 81 80 79 77 75 76 76 76 76 77 77 77 78 79 82 85 88 88 88 88 88 88 88 87 87 86 86 86 85 85 85 84 84 83 83 82 82 82 82 82 82 82 82 81 81 81 80 79 79 77 76 75 74 74 74 73 73 73 72 72 72 72 72 72 72 72 60 72 72 72 72 72 72 72 72 72 72 72 72 72 72 72 72 72 72 72 72 72 72 73 73 73 74 74 74 74 74 74 74 74 74
-1 -1 -1 -1 -1 -1 -1 -1 -1 -1 -1 -1 -1 -1 63 63 64 64 65 66 66 66 66 67 66 66 66 66 66 66 65 65 64 64 63 63 -1 -1 -1 -1 -1 -1 -1 -1 -1 -1 -1 -1 -1 -1 -1 -1 -1 -1 -1 -1 -1 -1 -1 -1 -1 -1 -1 -1 -1 -1 -1 -1 -1 -1 -1 -1 -1 -1 -1 -1 -1 -1 -1 -1 -1 63 63 64 64 64 65 65 66 66 66 67 67 67 68 68 68 68 68 67 68 68 68 68 68 69 69 69 69 70 70 70 70 70 70 70 70 70 70 70 70 70 70 71 71 71 71 71 71 70 69 69 69 69 69 69 69 69 68 68 68 68 68 70 71 71 71 71 72 73 74 74 74 78 80 81 80 79 77 75 75 76 76 76 77 77 77 78 79 82 87 89 89 89 89 89 89 89 88 88 87 87 86 86 85 85 85 85 84 84 83 83 82 82 81 81 81 81 80 80 80 80 80 79 78 76 75 75 74 74 73 73 73 72 72 72 72 72 72 72 72 72 72 72 72 72 72 72 72 72 72 72 72 72 72 72 72 72 72 72 72 72 72 72 73 73 73 73 74 74 74 74 74 74 74 74
-1 -1 -1 -1 -1 -1 -1 -1 -1 -1 -1 -1 -1 -1 63 63 64 64 65 66 66 66 66 66 66 66 66 66 66 65 65 64 64 63 63 -1 -1 -1 -1 -1 -1 -1 -1 -1 -1 -1 -1 -1 -1 -1 -1 -1 -1 -1 -1 -1 -1 -1 -1 -1 -1 -1 -1 -1 -1 -1 -1 -1 -1 -1 -1 -1 -1 -1 -1 -1 -1 -1 -1 -1 -1 63 63 64 64 64 65 65 66 66 66 67 67 67 68 68 68 68 67 67 67 68 68 68 68 69 69 69 69 70 70 70 70 70 70 70 70 70 70 70 70 70 70 71 71 71 71 71 70 70 70 69 69 69 69 69 69 69 68 68 68 68 69 70 70 71 71 71 72 73 74 74 75 78 80 81 80 79 77 75 75 76 76 76 77 77 77 78 79 82 89 91 90 90 90 90 90 89 89 89 89 88 87 87 86 86 85 85 85 84 84 84 83 82 81 80 80 79 79 79 79 79 80 80 78 77 76 75 74 74 73 73 73 72 72 72 72 72 72 60 60 60 60 60 72 72 72 72 72 72 72 72 72 72 72 60 60 60 60 60 72 72 72 72 72 73 73 73 73 74 74 74 74 74 74 74
-1 -1 -1 -1 -1 -1 -1 -1 -1 -1 -1 -1 -1 -1 -1 63 64 64 64 65 65 65 66 66 66 66 66 65 65 65 64 64 64 63 -1 -1 -1 -1 -1 -1 -1 -1 -1 -1 -1 -1 -1 -1 -1 -1 -1 -1 -1 -1 -1 -1 -1 -1 -1 -1 -1 -1 -1 -1 -1 -1 -1 -1 -1 -1 -1 -1 -1 -1 -1 -1 -1 -1 -1 -1 -1 63 63 64 64 64 65 65 65 66 66 66 67 67 67 68 68 67 67 67 67 67 68 68 68 69 69 69 69 70 70 70 70 70 70 70 70 70 70 70 70 70 70 70 70 70 70 70 69 69 69 68 68 68 68 68 68 68 68 68 68 69 69 69 69 69 70 70 71 72 72 73 74 76 77 79 78 77 76 75 75 76 76 77 77 77 77 77 79 80 88 90 90 90 90 90 90 89 89 89 89 88 87 86 86 86 85 85 85 84 84 84 83 82 81 81 80 80 80 79 80 80 80 80 78 77 76 75 74 74 73 73 73 72 72 72 72 72 72 60 60 60 60 60 72 72 72 72 72 72 72 72 72 72 72 60 60 60 60 60 72 72 72 72 72 73 73 73 73 73 74 74 74 74 74 74
-1 -1 -1 -1 -1 -1 -1 -1 -1 -1 -1 -1 -1 -1 -1 -1 63 64 64 64 65 65 65 66 65 65 65 65 64 64 64 64 63 -1 -1 -1 -1 -1 -1 -1 -1 -1 -1 -1 -1 -1 -1 -1 -1 -1 -1 -1 -1 -1 -1 -1 -1 -1 -1 -1 -1 -1 -1 -1 -1 -1 -1 -1 -1 -1 -1 -1 -1 -1 -1 -1 -1 -1 -1 -1 -1 63 63 64 64 64 65 65 65 66 66 66 67 67 67 68 67 67 67 66 67 67 68 68 68 68 69 69 69 69 70 70 70 70 70 70 70 70 70 70 70 70 69 69 69 69 69 69 68 68 67 67 67 67 67 67 67 67 67 67 67 67 68 68 68 68 69 69 70 70 71 71 72 73 75 77 77 76 75 75 75 76 76 77 77 77 77 77 78 79 80 90 90 90 90 90 90 90 89 89 89 88 87 86 86 86 85 85 85 85 84 84 83 83 82 81 81 81 81 80 80 80 80 80 78 77 76 75 74 74 73 73 73 72 72 72 72 72 72 60 60 60 60 60 72 72 72 72 72 72 72 72 72 72 72 60 60 60 60 60 72 72 72 72 72 72 73 73 73 73 73 74 74 74 74 74
-1 -1 -1 -1 -1 -1 -1 -1 -1 -1 -1 -1 -1 -1 -1 -1 63 63 64 64 64 64 65 65 65 65 65 64 64 64 64 63 -1 -1 -1 -1 -1 -1 -1 -1 -1 -1 -1 -1 -1 -1 -1 -1 -1 -1 -1 -1 -1 -1 -1 -1 -1 -1 -1 -1 -1 -1 -1 -1 -1 -1 -1 -1 -1 -1 -1 -1 -1 -1 -1 -1 -1 -1 -1 -1 -1 63 63 64 64 64 64 65 65 66 66 66 67 67 67 67 67 67 66 66 66 67 67 68 68 68 69 69 69 69 70 70 70 70 70 70 70 70 70 70 70 69 69 68 68 68 67 67 67 67 66 66 66 66 66 66 66 66 66 66 66 66 67 67 67 67 67 68 68 69 69 70 71 72 72 75 75 75 75 74 75 76 76 77 77 77 77 77 78 78 79 89 89 89 90 90 90 90 90 90 89 89 87 86 86 85 85 85 85 85 84 84 84 83 83 82 82 82 81 81 81 81 80 80 78 77 76 75 74 74 73 73 73 72 72 72 72 72 72 60 60 60 60 60 72 72 72 72 72 72 72 72 72 72 72 60 60 60 60 60 72 72 72 72 72 72 72 72 73 73 73 73 74 74 74 74
-1 -1 -1 -1 -1 -1 -1 -1 -1 -1 -1 -1 -1 -1 -1 -1 -1 63 63 64 64 64 64 65 64 64 64 64 64 63 63 -1 -1 -1 -1 -1 -1 -1 -1 -1 -1 -1 -1 -1 -1 -1 -1 -1 -1 -1 -1 -1 -1 -1 -1 -1 -1 -1 -1 -1 -1 -1 -1 -1 -1 -1 -1 -1 -1 -1 -1 -1 -1 -1 -1 -1 -1 -1 -1 -1 -1 63 63 64 64 64 64 65 65 65 66 66 66 67 67 67 67 66 66 65 66 67 67 68 68 68 68 69 69 69 69 70 70 70 70 70 70 70 70 70 69 69 68 67 66 66 66 66 66 65 65 65 65 64 65 65 65 65 65 65 65 65 66 66 66 66 66 66 67 67 67 67 69 70 71 72 73 73 74 74 75 76 77 77 77 77 77 77 77 78 78 79 89 89 89 90 90 90 90 90 89 89 87 86 86 85 85 85 85 85 84 84 84 83 83 83 83 82 82 82 81 81 81 80 78 77 76 75 74 74 73 73 73 72 72 72 72 72 72 60 60 60 60 60 72 72 72 72 72 72 72 72 72 72 72 60 60 60 60 60 72 72 72 72 72 72 72 72 72 73 73 73 73 74 74 74
-1 -1 -1 -1 -1 -1 -1 -1 -1 -1 -1 -1 -1 -1 -1 -1 -1 -1 63 63 64 64 64 64 64 64 64 64 63 63 -1 -1 -1 -1 -1 -1 -1 -1 -1 -1 -1 -1 -1 -1 -1 -1 -1 -1 -1 -1 -1 -1 -1 -1 -1 -1 -1 -1 -1 -1 -1 -1 -1 -1 -1 -1 -1 -1 -1 -1 -1 -1 -1 -1 -1 -1 -1 -1 -1 -1 -1 63 64 64 64 64 64 65 65 66 66 66 66 67 67 67 67 66 66 65 66 66 67 67 67 68 68 68 69 69 69 69 70 70 70 70 70 70 70 70 69 68 67 66 66 66 65 65 65 64 64 64 64 63 63 63 64 64 64 64 64 64 64 65 65 65 65 65 66 66 66 66 68 70 71 72 72 73 74 74 75 75 76 76 76 76 76 76 77 77 78 78 78 79 79 79 80 80 86 89 86 86 85 85 85 85 85 85 84 84 84 84 84 83 83 83 83 83 82 82 82 81 81 80 79 78 76 75 75 74 74 73 73 73 72 72 72 72 72 72 68 68 68 68 72 72 72 72 72 72 72 72 72 72 72 72 72 72 72 72 72 72 72 72 72 72 72 72 72 73 73 73 73 73 74 74
-1 -1 -1 -1 -1 -1 -1 -1 -1 -1 -1 -1 -1 -1 -1 -1 -1 -1 -1 63 63 63 64 64 64 63 63 63 63 -1 -1 -1 -1 -1 -1 -1 -1 -1 -1 -1 -1 -1 -1 -1 -1 -1 -1 -1 -1 -1 -1 -1 -1 -1 -1 -1 -1 -1 -1 -1 -1 -1 -1 -1 -1 -1 -1 -1 -1 -1 -1 -1 -1 -1 -1 -1 -1 -1 -1 -1 63 63 64 64 64 64 65 65 65 66 66 66 66 67 67 67 67 66 66 66 66 66 66 66 67 67 68 68 68 69 69 69 69 69 70 70 70 70 70 70 69 68 67 66 65 65 65 64 64 64 64 64 64 63 63 63 64 64 64 64 64 64 64 64 64 64 64 64 65 65 65 66 67 69 70 71 72 72 73 74 75 75 75 75 75 75 76 76 76 77 77 77 78 78 78 79 79 80 81 83 84 84 84 84 84 84 84 84 84 84 84 84 83 83 83 83 83 83 83 82 82 81 81 81 79 78 77 76 75 75 74 73 73 73 72 72 72 72 72 72 69 68 68 68 72 72 72 72 72 72 72 72 72 72 72 72 72 72 72 72 72 72 72 72 72 72 72 72 72 72 73 73 73 73 74 74
-1 -1 -1 -1 -1 -1 -1 -1 -1 -1 -1 -1 -1 -1 -1 -1 -1 -1 -1 -1 -1 63 63 63 63 63 63 -1 -1 -1 -1 -1 -1 -1 -1 -1 -1 -1 -1 -1 -1 -1 -1 -1 -1 -1 -1 -1 -1 -1 -1 -1 -1 -1 -1 -1 -1 -1 -1 -1 -1 -1 -1 -1 -1 -1 -1 -1 -1 -1 -1 -1 -1 -1 -1 -1 -1 -1 -1 -1 63 63 64 64 64 64 65 65 66 66 66 66 67 67 67 67 67 66 66 66 66 66 66 66 66 67 67 68 68 68 69 69 69 69 69 70 70 70 69 69 69 68 67 65 65 65 64 64 64 64 64 63 63 63 63 63 63 63 63 63 63 63 63 63 64 64 64 64 64 64 64 65 66 68 69 71 72 72 73 75 74 74 74 74 74 75 75 75 76 76 76 77 77 77 78 78 79 80 80 82 82 83 83 83 84 84 84 84 84 84 84 83 83 83 83 83 83 83 83 83 82 82 81 81 80 79 78 77 76 75 74 73 73 73 72 72 72 72 72 72 72 68 62 63 62 72 72 72 72 72 72 72 72 72 72 72 72 72 72 72 72 72 72 72 72 72 72 72 72 72 73 73 73 73 73 74
-1 -1 -1 -1 -1 -1 -1 -1 -1 -1 -1 -1 -1 -1 -1 -1 -1 -1 -1 -1 -1 -1 -1 63 -1 -1 -1 -1 -1 -1 -1 -1 -1 -1 -1 -1 -1 -1 -1 -1 -1 -1 -1 -1 -1 -1 -1 -1 -1 -1 -1 -1 -1 -1 -1 -1 -1 -1 -1 -1 -1 -1 -1 -1 -1 -1 -1 -1 -1 -1 -1 -1 -1 -1 -1 -1 -1 -1 -1 -1 63 63 64 64 64 65 65 66 66 66 66 66 67 67 67 67 67 66 66 66 65 65 65 65 65 66 67 67 68 68 68 69 69 69 69 69 69 69 69 69 68 67 66 65 64 64 64 64 64 63 63 63 -1 -1 -1 -1 -1 -1 -1 -1 -1 -1 -1 -1 63 63 63 63 64 64 64 64 65 67 69 70 71 72 73 75 74 74 74 73 74 74 75 75 75 75 76 76 76 77 77 78 79 79 80 81 82 82 83 83 83 83 84 84 84 83 83 83 83 83 83 83 83 83 83 83 83 82 82 81 80 80 79 78 77 76 74 74 73 73 73 72 72 72 72 72 72 68 61 68 62 72 72 72 72 72 72 72 72 72 72 72 72 72 72 72 72 72 72 72 72 72 72 72 72 72 72 73 73 73 73 74
-1 -1 -1 -1 -1 -1 -1 -1 -1 -1 -1 -1 -1 -1 -1 -1 -1 -1 -1 -1 -1 -1 -1 -1 -1 -1 -1 -1 -1 -1 -1 -1 -1 -1 -1 -1 -1 -1 -1 -1 -1 -1 -1 -1 -1 -1 -1 -1 -1 -1 -1 -1 -1 -1 -1 -1 -1 -1 -1 -1 -1 -1 -1 -1 -1 -1 -1 -1 -1 -1 -1 -1 -1 -1 -1 -1 -1 -1 -1 -1 63 63 64 64 64 65 65 66 66 66 66 66 67 67 67 67 67 66 66 66 66 65 65 65 65 66 66 67 67 68 68 68 69 69 69 69 69 69 69 69 68 67 66 65 64 64 64 64 63 63 -1 -1 -1 -1 -1 -1 -1 -1 -1 -1 -1 -1 -1 -1 -1 -1 -1 -1 63 63 64 64 65 66 68 69 70 71 72 74 74 74 74 73 74 74 74 74 74 75 75 75 76 76 77 77 78 79 80 81 81 82 82 83 83 83 83 83 83 83 83 83 83 83 83 83 83 83 83 83 83 82 82 81 81 80 79 79 77 76 75 74 73 73 73 72 72 72 72 72 72 63 63 63 62 69 72 72 72 72 72 71 71 72 72 72 72 72 72 71 72 72 72 72 72 72 72 72 72 72 72 73 73 73 73 73
-1 -1 -1 -1 -1 -1 -1 -1 -1 -1 -1 -1 -1 -1 -1 -1 -1 -1 -1 -1 -1 -1 -1 -1 -1 -1 -1 -1 -1 -1 -1 -1 -1 -1 -1 -1 -1 -1 -1 -1 -1 -1 -1 -1 -1 -1 -1 -1 -1 -1 -1 -1 -1 -1 -1 -1 -1 -1 -1 -1 -1 -1 -1 -1 -1 -1 -1 -1 -1 -1 -1 -1 -1 -1 -1 -1 -1 -1 -1 63 63 64 64 64 64 65 65 65 66 66 66 66 66 67 67 67 67 66 66 66 66 65 65 64 65 65 66 66 67 67 68 68 68 68 68 69 69 68 68 68 67 66 65 64 64 64 64 63 63 -1 -1 -1 -1 -1 -1 -1 -1 -1 -1 -1 -1 -1 -1 -1 -1 -1 -1 -1 -1 63 63 64 64 65 67 68 69 71 72 73 73 73 73 74 74 74 73 73 74 74 74 75 75 76 76 77 78 79 79 80 81 82 82 82 83 83 83 83 83 83 83 83 83 83 83 83 83 83 83 83 83 83 82 82 81 80 79 79 77 76 75 74 73 73 73 72 72 72 72 72 72 69 60 62 62 69 72 72 72 72 71 71 71 71 71 71 71 71 71 71 71 72 72 72 72 72 72 72 72 72 72 72 73 73 73 73
-1 -1 -1 -1 -1 -1 -1 -1 -1 -1 -1 -1 -1 -1 -1 -1 -1 -1 -1 -1 -1 -1 -1 -1 -1 -1 -1 -1 -1 -1 -1 -1 -1 -1 -1 -1 -1 -1 -1 -1 -1 -1 -1 -1 -1 -1 -1 -1 -1 -1 -1 -1 -1 -1 -1 -1 -1 -1 -1 -1 -1 -1 -1 -1 -1 -1 -1 -1 -1 -1 -1 -1 -1 -1 -1 -1 -1 -1 -1 63 63 64 64 64 64 65 65 65 66 66 66 66 66 66 67 67 66 66 66 66 66 65 65 64 65 65 65 66 66 67 67 68 68 68 68 68 68 68 68 68 67 66 65 64 64 64 64 63 -1 -1 -1 -1 -1 -1 -1 -1 -1 -1 -1 -1 -1 -1 -1 -1 -1 -1 -1 -1 -1 -1 -1 63 64 64 66 67 69 70 71 72 73 73 73 74 74 73 73 73 73 73 74 74 75 75 76 76 77 78 79 80 81 81 82 82 82 82 83 83 83 83 82 82 82 83 83 83 83 83 83 84 83 83 82 82 81 80 80 79 77 76 75 74 73 73 73 72 72 72 72 72 72 72 69 69 69 69 69 72 72 71 71 71 71 71 71 71 71 71 71 71 71 71 72 72 72 72 72 72 72 72 72 72 72 73 73 73
-1 -1 -1 -1 -1 -1 -1 -1 -1 -1 -1 -1 -1 -1 -1 -1 -1 -1 -1 -1 -1 -1 -1 -1 -1 -1 -1 -1 -1 -1 -1 -1 -1 -1 -1 -1 -1 -1 -1 -1 -1 -1 -1 -1 -1 -1 -1 -1 -1 -1 -1 -1 -1 -1 -1 -1 -1 -1 -1 -1 -1 -1 -1 -1 -1 -1 -1 -1 -1 -1 -1 -1 -1 -1 -1 -1 -1 -1 -1 63 63 64 64 64 65 65 65 65 66 66 66 66 66 66 66 66 66 66 66 66 66 65 65 64 64 65 65 65 66 66 67 67 67 67 68 68 68 68 67 67 67 66 65 64 64 64 63 -1 -1 -1 -1 -1 -1 -1 -1 -1 -1 -1 -1 -1 -1 -1 -1 -1 -1 -1 -1 -1 -1 -1 -1 -1 63 64 65 66 68 69 71 72 72 73 73 74 73 73 72 72 72 73 73 74 74 75 75 76 77 78 79 80 80 81 81 82 82 82 82 82 82 82 82 82 82 82 83 83 83 83 84 84 83 83 83 82 81 81 80 79 78 76 75 74 73 73 73 72 72 72 72 72 72 72 69 69 69 69 69 69 72 71 71 71 71 71 71 71 71 71 71 71 71 71 71 71 72 72 72 72 72 72 72 72 72 72 72 72
-1 -1 -1 -1 -1 -1 -1 -1 -1 -1 -1 -1 -1 -1 -1 -1 -1 -1 -1 -1 -1 -1 -1 -1 -1 -1 -1 -1 -1 -1 -1 -1 -1 -1 -1 -1 -1 -1 -1 -1 -1 -1 -1 -1 -1 -1 -1 -1 -1 -1 -1 -1 -1 -1 -1 -1 -1 -1 -1 -1 -1 -1 -1 -1 -1 -1 -1 -1 -1 -1 -1 -1 -1 -1 -1 -1 -1 -1 -1 63 63 64 64 64 64 65 65 65 66 66 66 66 66 66 66 66 66 66 66 66 66 65 65 64 64 64 65 65 65 65 66 66 66 66 66 66 66 66 66 66 66 65 64 64 64 63 63 -1 -1 -1 -1 -1 -1 -1 -1 -1 -1 -1 -1 -1 -1 -1 -1 -1 -1 -1 -1 -1 -1 -1 -1 -1 63 64 64 65 66 68 70 71 71 72 72 73 72 72 72 72 72 72 72 73 73 74 74 75 76 77 78 79 80 80 81 81 82 82 82 82 82 82 82 82 82 82 83 83 83 83 83 84 83 83 83 82 82 81 80 79 78 76 75 74 73 73 72 72 72 72 72 72 72 72 72 69 69 69 69 69 69 70 71 71 71 71 71 71 71 71 71 71 71 71 71 71 72 72 72 72 72 72 72 72 72 72 72 72
-1 -1 -1 -1 -1 -1 -1 -1 -1 -1 -1 -1 -1 -1 -1 -1 -1 -1 -1 -1 -1 -1 -1 -1 -1 -1 -1 -1 -1 -1 -1 -1 -1 -1 -1 -1 -1 -1 -1 -1 -1 -1 -1 -1 -1 -1 -1 -1 -1 -1 -1 -1 -1 -1 -1 -1 -1 -1 -1 -1 -1 -1 -1 -1 -1 -1 -1 -1 -1 -1 -1 -1 -1 -1 -1 -1 -1 -1 -1 63 63 64 64 64 64 65 65 65 65 66 66 66 66 66 66 66 66 66 66 66 66 65 65 64 64 64 64 64 64 65 65 65 65 65 65 65 65 65 66 66 65 64 64 64 63 63 -1 -1 -1 -1 -1 -1 -1 -1 -1 -1 -1 -1 -1 -1 -1 -1 -1 -1 -1 -1 -1 -1 -1 -1 -1 -1 -1 63 64 64 65 67 68 70 70 71 72 72 72 72 72 71 72 72 72 72 73 73 74 75 75 76 77 79 79 80 80 81 81 81 82 82 82 82 82 82 82 82 82 83 83 83 83 84 83 83 83 82 82 81 80 80 78 76 75 74 73 73 72 72 72 72 72 72 72 72 72 69 62 69 63 69 69 69 69 70 71 71 71 71 71 71 71 71 71 71 71 71 72 72 72 72 72 72 72 72 72 72 72 73
-1 -1 -1 -1 -1 -1 -1 -1 -1 -1 -1 -1 -1 -1 -1 -1 -1 -1 -1 -1 -1 -1 -1 -1 -1 -1 -1 -1 -1 -1 -1 -1 -1 -1 -1 -1 -1 -1 -1 -1 -1 -1 -1 -1 -1 -1 -1 -1 -1 -1 -1 -1 -1 -1 -1 -1 -1 -1 -1 -1 -1 -1 -1 -1 -1 -1 -1 -1 -1 -1 -1 -1 -1 -1 -1 -1 -1 -1 -1 63 63 63 64 64 64 64 65 65 65 66 66 67 66 66 66 66 66 66 66 66 66 65 65 65 64 64 64 64 64 64 64 64 64 64 64 64 64 65 65 65 64 64 64 63 63 -1 -1 -1 -1 -1 -1 -1 -1 -1 -1 -1 -1 -1 -1 -1 -1 -1 -1 -1 -1 -1 -1 -1 -1 -1 -1 -1 -1 -1 63 64 64 65 67 68 69 70 70 71 71 71 71 71 71 72 72 72 72 73 73 74 75 76 77 78 79 79 80 81 81 81 81 82 82 82 82 82 82 82 82 82 83 83 83 83 83 83 83 83 82 81 81 80 78 76 75 74 73 73 72 72 72 72 72 72 72 72 72 72 60 61 63 63 69 69 69 70 70 71 71 71 71 71 71 71 71 71 71 71 71 72 72 72 72 72 72 72 72 72 72 73
-1 -1 -1 -1 -1 -1 -1 -1 -1 -1 -1 -1 -1 -1 -1 -1 -1 -1 -1 -1 -1 -1 -1 -1 -1 -1 -1 -1 -1 -1 -1 -1 -1 -1 -1 -1 -1 -1 -1 -1 -1 -1 -1 -1 -1 -1 -1 -1 -1 -1 -1 -1 -1 -1 -1 -1 -1 -1 -1 -1 -1 -1 -1 -1 -1 -1 -1 -1 -1 -1 -1 -1 -1 -1 -1 -1 -1 -1 -1 -1 63 63 64 64 64 64 65 65 65 66 66 67 66 66 66 66 66 66 66 66 66 66 65 65 64 64 64 64 64 64 64 64 64 64 64 64 64 64 64 64 64 64 63 63 -1 -1 -1 -1 -1 -1 -1 -1 -1 -1 -1 -1 -1 -1 -1 -1 -1 -1 -1 -1 -1 -1 -1 -1 -1 -1 -1 -1 -1 -1 -1 63 64 64 65 66 67 68 69 70 70 70 70 70 71 71 72 72 72 72 73 73 74 75 76 77 78 79 79 80 80 81 81 82 82 82 82 82 82 82 82 82 83 83 83 83 83 83 83 83 82 81 81 80 78 76 75 74 73 73 72 72 72 72 72 72 72 72 72 72 72 70 61 69 69 61 62 70 70 70 70 71 71 71 71 71 71 71 71 71 71 72 72 72 72 72 72 72 72 72 72 73
-1 -1 -1 -1 -1 -1 -1 -1 -1 -1 -1 -1 -1 -1 -1 -1 -1 -1 -1 -1 -1 -1 -1 -1 -1 -1 -1 -1 -1 -1 -1 -1 -1 -1 -1 -1 -1 -1 -1 -1 -1 -1 -1 -1 -1 -1 -1 -1 -1 -1 -1 -1 -1 -1 -1 -1 -1 -1 -1 -1 -1 -1 -1 -1 -1 -1 -1 -1 -1 -1 -1 -1 -1 -1 -1 -1 -1 -1 -1 -1 63 63 64 64 64 64 64 65 65 66 66 66 66 66 66 66 66 66 66 67 66 66 65 65 65 64 64 64 64 64 64 64 64 64 64 64 64 64 64 64 64 63 63 -1 -1 -1 -1 -1 -1 -1 -1 -1 -1 -1 -1 -1 -1 -1 -1 -1 -1 -1 -1 -1 -1 -1 -1 -1 -1 -1 -1 -1 -1 -1 -1 -1 63 64 64 65 65 66 67 68 68 69 69 69 70 70 71 71 72 72 72 73 74 75 76 77 77 78 79 80 80 81 81 81 81 81 82 82 82 82 82 82 83 83 83 83 83 83 83 83 82 81 81 80 78 76 75 74 73 73 72 72 72 72 72 72 72 72 72 72 72 72 70 69 69 69 70 70 70 70 70 70 71 71 71 71 71 71 71 71 71 72 72 72 72 72 72 72 72 72 72 73
-1 -1 -1 -1 -1 -1 -1 -1 -1 -1 -1 -1 -1 -1 -1 -1 -1 -1 -1 -1 -1 -1 -1 -1 -1 -1 -1 -1 -1 -1 -1 -1 -1 -1 -1 -1 -1 -1 -1 -1 -1 -1 -1 -1 -1 -1 -1 -1 -1 -1 -1 -1 -1 -1 -1 -1 -1 -1 -1 -1 -1 -1 -1 -1 -1 -1 -1 -1 -1 -1 -1 -1 -1 -1 -1 -1 -1 -1 -1 -1 -1 63 63 64 64 64 64 65 65 65 66 66 66 66 66 66 66 66 67 67 66 66 66 65 65 65 64 64 64 64 64 64 64 64 63 63 63 63 63 63 63 -1 -1 -1 -1 -1 -1 -1 -1 -1 -1 -1 -1 -1 -1 -1 -1 -1 -1 -1 -1 -1 -1 -1 -1 -1 -1 -1 -1 -1 -1 -1 -1 -1 -1 -1 -1 63 64 64 64 64 64 65 66 67 67 68 68 69 70 70 71 71 72 73 73 74 75 76 77 78 78 79 80 80 81 81 81 81 81 82 82 82 82 82 83 83 83 83 83 83 83 83 82 81 81 80 78 76 75 74 73 73 73 72 72 72 72 72 72 72 72 72 72 72 72 72 71 70 70 70 70 70 70 70 70 71 71 71 71 71 71 71 71 71 72 72 72 72 72 72 72 72 72 72
-1 -1 -1 -1 -1 -1 -1 -1 -1 -1 -1 -1 -1 -1 -1 -1 -1 -1 -1 -1 -1 -1 -1 -1 -1 -1 -1 -1 -1 -1 -1 -1 -1 -1 -1 -1 -1 -1 -1 -1 -1 -1 -1 -1 -1 -1 -1 -1 -1 -1 -1 -1 -1 -1 -1 -1 -1 -1 -1 -1 -1 -1 -1 -1 -1 -1 -1 -1 -1 -1 -1 -1 -1 -1 -1 -1 -1 -1 -1 -1 -1 63 63 64 64 64 64 64 65 65 66 66 66 66 66 66 66 67 67 67 66 66 66 66 65 65 64 64 64 64 64 63 63 63 63 63 63 63 -1 -1 -1 -1 -1 -1 -1 -1 -1 -1 -1 -1 -1 -1 -1 -1 -1 -1 -1 -1 -1 -1 -1 -1 -1 -1 -1 -1 -1 -1 -1 -1 -1 -1 -1 -1 -1 -1 -1 -1 63 63 64 64 64 64 64 65 66 66 67 68 68 69 70 71 72 72 73 74 75 76 76 77 78 79 79 80 80 81 81 81 81 81 82 82 82 82 83 83 83 83 83 83 83 83 82 81 81 80 78 76 75 74 73 73 73 72 72 72 72 72 72 72 72 72 72 72 72 72 72 71 71 70 70 70 70 70 70 71 71 71 71 71 71 71 71 71 72 72 72 72 72 72 72 72 72 72
-1 -1 -1 -1 -1 -1 -1 -1 -1 -1 -1 -1 -1 -1 -1 -1 -1 -1 -1 -1 -1 -1 -1 -1 -1 -1 -1 -1 -1 -1 -1 -1 -1 -1 -1 -1 -1 -1 -1 -1 -1 -1 -1 -1 -1 -1 -1 -1 -1 -1 -1 -1 -1 -1 -1 -1 -1 -1 -1 -1 -1 -1 -1 -1 -1 -1 -1 -1 -1 -1 -1 -1 -1 -1 -1 -1 -1 -1 -1 -1 -1 -1 63 64 64 64 64 64 65 65 66 66 66 66 66 66 66 67 67 67 66 66 66 66 65 65 65 64 64 64 63 63 63 63 -1 -1 -1 -1 -1 -1 -1 -1 -1 -1 -1 -1 -1 -1 -1 -1 -1 -1 -1 -1 -1 -1 -1 -1 -1 -1 -1 -1 -1 -1 -1 -1 -1 -1 -1 -1 -1 -1 -1 -1 -1 -1 -1 -1 -1 -1 63 63 63 64 64 64 64 64 65 66 67 68 69 70 71 72 72 73 74 75 76 77 77 78 79 79 80 80 81 81 81 81 82 82 82 82 83 83 83 83 83 83 83 83 82 81 81 80 78 76 75 74 73 73 73 73 72 72 72 72 72 72 72 72 72 72 72 72 72 71 71 71 71 70 70 70 70 71 71 71 71 71 71 71 71 71 72 72 72 72 72 72 72 72 72 72
-1 -1 -1 -1 -1 -1 -1 -1 -1 -1 -1 -1 -1 -1 -1 -1 -1 -1 -1 -1 -1 -1 -1 -1 -1 -1 -1 -1 -1 -1 -1 -1 -1 -1 -1 -1 -1 -1 -1 -1 -1 -1 -1 -1 -1 -1 -1 -1 -1 -1 -1 -1 -1 -1 -1 -1 -1 -1 -1 -1 -1 -1 -1 -1 -1 -1 -1 -1 -1 -1 -1 -1 -1 -1 -1 -1 -1 -1 -1 -1 -1 -1 -1 63 63 64 64 64 64 65 65 66 66 66 66 66 66 66 66 66 66 66 66 65 65 65 64 64 64 63 63 -1 -1 -1 -1 -1 -1 -1 -1 -1 -1 -1 -1 -1 -1 -1 -1 -1 -1 -1 -1 -1 -1 -1 -1 -1 -1 -1 -1 -1 -1 -1 -1 -1 -1 -1 -1 -1 -1 -1 -1 -1 -1 -1 -1 -1 -1 -1 -1 -1 -1 -1 63 63 64 64 64 64 65 66 66 67 69 70 71 72 72 73 74 75 75 76 77 78 79 79 80 80 81 81 81 81 82 82 82 82 82 83 83 83 83 83 83 82 82 81 80 79 77 76 75 74 73 73 73 73 73 72 72 72 72 72 72 72 72 72 72 72 72 72 71 71 71 71 71 71 71 71 71 71 71 71 71 71 71 71 72 72 72 72 72 72 72 72 72 72
-1 -1 -1 -1 -1 -1 -1 -1 -1 -1 -1 -1 -1 -1 -1 -1 -1 -1 -1 -1 -1 -1 -1 -1 -1 -1 -1 -1 -1 -1 -1 -1 -1 -1 -1 -1 -1 -1 -1 -1 -1 -1 -1 -1 -1 -1 -1 -1 -1 -1 -1 -1 -1 -1 -1 -1 -1 -1 -1 -1 -1 -1 -1 -1 -1 -1 -1 -1 -1 -1 -1 -1 -1 -1 -1 -1 -1 -1 -1 -1 -1 -1 -1 -1 63 63 64 64 64 65 65 66 66 66 66 66 66 66 66 66 66 66 65 65 64 64 64 64 63 63 -1 -1 -1 -1 -1 -1 -1 -1 -1 -1 -1 -1 -1 -1 -1 -1 -1 -1 -1 -1 -1 -1 -1 -1 -1 -1 -1 -1 -1 -1 -1 -1 -1 -1 -1 -1 -1 -1 -1 -1 -1 -1 -1 -1 -1 -1 -1 -1 -1 -1 -1 -1 -1 63 63 63 64 64 64 65 66 67 68 70 71 72 72 72 73 74 75 76 77 78 78 79 80 80 81 81 81 81 81 82 82 82 82 83 83 83 83 83 82 82 81 80 79 78 76 75 75 74 74 73 73 73 73 73 73 72 72 72 72 72 72 72 72 72 72 72 72 71 71 71 71 71 71 71 71 71 71 71 71 71 71 72 72 72 72 72 72 72 72 72 72 72
-1 -1 -1 -1 -1 -1 -1 -1 -1 -1 -1 -1 -1 -1 -1 -1 -1 -1 -1 -1 -1 -1 -1 -1 -1 -1 -1 -1 -1 -1 -1 -1 -1 -1 -1 -1 -1 -1 -1 -1 -1 -1 -1 -1 -1 -1 -1 -1 -1 -1 -1 -1 -1 -1 -1 -1 -1 -1 -1 -1 -1 -1 -1 -1 -1 -1 -1 -1 -1 -1 -1 -1 -1 -1 -1 -1 -1 -1 -1 -1 -1 -1 -1 -1 -1 63 64 64 64 64 65 66 66 66 66 66 66 66 66 66 65 65 65 64 64 64 64 63 63 -1 -1 -1 -1 -1 -1 -1 -1 -1 -1 -1 -1 -1 -1 -1 -1 -1 -1 -1 -1 -1 -1 -1 -1 -1 -1 -1 -1 -1 -1 -1 -1 -1 -1 -1 -1 -1 -1 -1 -1 -1 -1 -1 -1 -1 -1 -1 -1 -1 -1 -1 -1 -1 -1 -1 -1 63 63 64 64 64 65 66 68 69 71 72 72 72 73 74 75 75 76 77 78 79 80 80 81 81 81 81 81 82 82 82 82 82 83 83 83 82 82 82 81 79 78 77 76 75 74 74 74 73 73 73 73 73 73 73 73 72 72 72 72 72 72 72 72 72 72 72 72 71 71 71 71 71 71 71 71 71 71 71 71 72 72 72 72 72 72 72 72 72 72 72
