-1 -1 -1 -1 -1 -1 -1 -1 -1 -1 -1 -1 63 63 63 63 63 63 63 63 63 63 62 63 63 63 63 63 63 63 63 63 63 63 63 63 63 63 63 63 63 63 63 63 63 63 64 64 66 68 70 70 70 69 69 69 69 69 69 68 68 68 67 67 67 67 66 65 64 64 64 64 64 64 64 64 64 64 64 64 64 64 64 64 64 64 64 63 63 63 63 63 63 -1 -1 -1 -1 -1 -1 -1 -1 -1 -1 -1 -1 -1 -1 -1 -1 -1 -1 -1 -1 -1 -1 -1 -1 -1 -1 -1 -1 -1 -1 -1 -1 -1 -1 -1 -1 -1 -1 -1 -1 -1 -1 -1 -1 -1 -1 -1 -1 -1 -1 -1 -1 -1 -1 -1 -1 -1 -1 -1 -1 -1 -1 -1 -1 -1 -1 -1 -1 -1 -1 -1 -1 -1 -1 -1 -1 -1 -1 -1 -1 -1 -1 63 64 67 71 70 70 70 70 69 69 69 69 69 69 69 69 69 68 68 68 68 69 70 70 71 71 71 71 71 71 71 71 71 71 71 71 71 71 71 71 71 71 72 72 72 72 72 72 73 73 74 75 75 76 76 77 77 77 78 78 72 70 68 67 66 66 66 65 66 66 67 68 69 70 71 72 72 71 71 71 71
-1 -1 -1 -1 -1 -1 -1 -1 -1 -1 -1 -1 -1 -1 -1 63 63 63 63 63 63 63 63 63 63 63 63 63 63 63 63 63 63 63 63 63 63 63 63 63 63 63 63 63 64 64 64 64 67 68 70 70 70 69 69 69 69 69 69 68 68 67 67 67 67 66 66 65 64 64 64 64 64 64 64 64 64 64 64 64 64 64 64 64 64 64 64 63 63 63 63 63 -1 -1 -1 -1 -1 -1 -1 -1 -1 -1 -1 -1 -1 -1 -1 -1 -1 -1 -1 -1 -1 -1 -1 -1 -1 -1 -1 -1 -1 -1 -1 -1 -1 -1 -1 -1 -1 -1 -1 -1 -1 -1 -1 -1 -1 -1 -1 -1 -1 -1 -1 -1 -1 -1 -1 -1 -1 -1 -1 -1 -1 -1 -1 -1 -1 -1 -1 -1 -1 -1 -1 -1 -1 -1 -1 -1 -1 -1 -1 -1 -1 -1 -1 63 64 68 71 71 70 70 70 69 69 69 69 69 69 69 69 68 68 68 67 68 69 70 70 71 71 71 71 71 71 71 71 71 71 71 71 71 71 71 71 71 72 72 72 72 72 72 73 73 74 75 76 76 76 77 77 78 78 78 78 72 70 69 68 68 66 66 67 67 68 69 70 71 71 72 72 72 72 71 71 71
-1 -1 -1 -1 -1 -1 -1 -1 -1 -1 -1 -1 -1 -1 -1 -1 -1 -1 -1 63 63 63 63 63 63 63 63 63 63 63 63 63 63 63 63 63 63 63 64 63 63 63 63 63 64 64 64 66 68 69 70 70 69 69 69 69 69 69 68 68 68 67 67 66 66 66 65 65 64 64 64 64 64 64 64 64 64 64 64 64 64 64 64 64 64 64 64 63 63 63 63 -1 -1 -1 -1 -1 -1 -1 -1 -1 -1 -1 -1 -1 -1 -1 -1 -1 -1 -1 -1 -1 -1 -1 -1 -1 -1 -1 -1 -1 -1 -1 -1 -1 -1 -1 -1 -1 -1 -1 -1 -1 -1 -1 -1 -1 -1 -1 -1 -1 -1 -1 -1 -1 -1 -1 -1 -1 -1 -1 -1 -1 -1 -1 -1 -1 -1 -1 -1 -1 -1 -1 -1 -1 -1 -1 -1 -1 -1 -1 -1 -1 -1 -1 -1 63 65 68 71 71 70 70 70 69 69 69 68 68 69 69 69 68 68 68 67 68 69 70 71 71 71 71 71 71 71 71 71 71 71 71 71 71 71 71 71 72 72 72 72 72 73 73 74 74 75 75 76 77 77 78 78 78 78 78 79 73 71 70 69 69 68 68 68 68 69 71 73 73 73 73 73 72 72 72 71 71
-1 -1 -1 -1 -1 -1 -1 -1 -1 -1 -1 -1 -1 -1 -1 -1 -1 -1 -1 63 63 63 63 63 63 63 63 63 63 63 63 63 63 63 63 63 63 64 64 64 64 63 63 64 64 64 66 67 68 69 69 69 69 69 69 69 69 68 68 68 67 67 67 66 66 66 65 65 64 64 64 64 64 64 64 64 64 64 64 64 64 64 64 64 64 64 64 63 63 63 -1 -1 -1 -1 -1 -1 -1 -1 -1 -1 -1 -1 -1 -1 -1 -1 -1 -1 -1 -1 -1 -1 -1 -1 -1 -1 -1 -1 -1 -1 -1 -1 -1 -1 -1 -1 -1 -1 -1 -1 -1 -1 -1 -1 -1 -1 -1 -1 -1 -1 -1 -1 -1 -1 -1 63 63 63 63 63 63 63 63 63 63 -1 -1 -1 -1 -1 -1 -1 -1 -1 -1 -1 -1 -1 -1 -1 -1 -1 63 63 64 64 66 68 69 69 68 68 67 67 68 68 68 68 67 67 67 67 66 66 65 66 67 67 68 68 69 69 70 70 71 71 71 71 71 71 71 71 71 71 71 72 72 72 72 72 73 74 74 75 75 76 77 77 78 78 79 79 79 79 80 74 72 71 70 70 69 69 69 69 71 72 73 74 74 74 74 73 72 72 72 71
-1 -1 -1 -1 -1 -1 -1 -1 -1 -1 -1 -1 -1 -1 -1 -1 -1 -1 -1 -1 63 63 63 63 63 63 63 63 63 63 63 63 63 63 63 63 64 64 64 64 64 64 64 64 64 66 68 68 69 69 69 69 69 69 69 68 68 68 68 67 67 67 66 66 66 66 65 65 64 64 64 64 64 64 64 64 64 64 64 64 64 64 64 64 64 64 63 63 63 63 -1 -1 -1 -1 -1 -1 -1 -1 -1 -1 -1 -1 -1 -1 -1 -1 -1 -1 -1 -1 -1 -1 -1 -1 -1 -1 -1 -1 -1 -1 -1 -1 -1 -1 -1 -1 -1 -1 -1 -1 -1 -1 -1 -1 -1 -1 -1 -1 -1 -1 -1 -1 -1 -1 63 64 64 65 65 65 65 65 65 65 64 64 64 63 63 63 63 -1 -1 -1 -1 -1 -1 -1 63 63 63 64 64 65 66 66 67 67 68 66 65 64 64 64 65 67 68 67 66 65 65 64 64 64 64 64 64 64 65 65 66 67 68 69 70 71 71 71 71 71 71 71 71 71 71 72 72 72 72 73 73 74 75 75 76 77 77 78 79 79 80 80 80 80 80 76 73 72 71 71 71 70 70 71 72 73 75 75 75 75 75 74 73 73 72 72
-1 -1 -1 -1 -1 -1 -1 -1 -1 -1 -1 -1 -1 -1 -1 -1 -1 -1 -1 -1 63 63 63 63 63 63 63 63 63 63 63 63 63 63 63 63 64 64 64 64 64 64 64 64 66 68 69 69 69 69 69 69 69 69 68 68 68 68 68 67 67 67 66 66 66 66 65 65 64 64 64 64 64 64 64 64 64 64 64 64 64 64 64 64 64 64 63 63 63 63 -1 -1 -1 -1 -1 -1 -1 -1 -1 -1 -1 -1 -1 -1 -1 -1 -1 -1 -1 -1 -1 -1 -1 -1 -1 -1 -1 -1 -1 -1 -1 -1 -1 -1 -1 -1 -1 -1 -1 -1 -1 -1 -1 -1 -1 -1 -1 -1 -1 -1 -1 -1 -1 -1 64 65 67 67 68 68 68 68 68 68 68 67 67 66 65 64 64 63 63 63 63 63 63 63 64 64 66 67 68 68 69 68 67 67 65 64 63 63 63 63 64 64 67 65 64 64 63 63 63 63 63 63 63 63 63 64 64 65 66 68 70 70 71 71 71 71 71 71 71 71 71 72 72 72 72 73 74 74 76 76 77 77 77 79 79 80 80 81 81 81 81 78 77 75 74 73 73 73 72 74 75 76 77 77 77 77 77 75 74 73 72 72
-1 -1 -1 -1 -1 -1 -1 -1 -1 -1 -1 -1 -1 -1 -1 -1 -1 -1 -1 -1 -1 63 63 63 63 63 63 63 63 63 63 63 63 63 63 64 64 64 64 64 64 64 64 66 68 69 70 69 69 69 69 69 68 68 68 68 68 68 67 67 67 66 66 66 66 65 65 65 64 64 64 64 64 64 64 64 64 64 64 64 64 64 64 64 64 64 63 63 63 -1 -1 -1 -1 -1 -1 -1 -1 -1 -1 -1 -1 -1 -1 -1 -1 -1 -1 -1 -1 -1 -1 -1 -1 -1 -1 -1 -1 -1 -1 -1 -1 -1 -1 -1 -1 -1 -1 -1 -1 -1 -1 -1 -1 -1 -1 -1 -1 -1 -1 -1 -1 -1 -1 63 64 67 69 69 70 70 70 70 70 70 70 70 70 70 69 67 65 64 64 63 63 63 63 64 64 65 71 71 72 72 72 70 68 66 64 63 -1 63 63 -1 63 64 66 64 63 -1 -1 -1 -1 -1 -1 -1 -1 -1 -1 -1 63 64 64 67 70 70 71 71 72 72 72 72 72 71 71 72 72 72 72 73 74 74 76 77 77 78 79 80 80 81 81 81 81 81 81 81 81 81 81 81 81 81 82 82 82 81 81 81 80 80 79 77 75 74 73 72
-1 -1 -1 -1 -1 -1 -1 -1 -1 -1 -1 -1 -1 -1 -1 -1 -1 -1 -1 -1 -1 63 63 63 63 63 63 63 63 63 63 63 63 63 63 64 64 64 64 64 64 64 64 66 68 69 70 69 69 69 69 68 68 68 68 68 67 67 67 67 66 66 66 65 65 65 65 64 64 64 64 64 64 64 64 64 64 64 64 64 64 64 64 64 64 64 63 63 63 -1 -1 -1 -1 -1 -1 -1 -1 -1 -1 -1 -1 -1 -1 -1 -1 -1 -1 -1 -1 -1 -1 -1 -1 -1 -1 -1 -1 -1 -1 -1 -1 -1 -1 -1 -1 -1 -1 -1 -1 -1 -1 -1 -1 -1 -1 -1 -1 -1 -1 -1 -1 -1 -1 63 64 67 69 70 70 70 70 70 71 71 71 71 71 71 70 69 67 66 66 65 65 65 65 66 67 67 71 72 72 72 72 71 70 68 66 64 63 63 -1 63 64 66 68 65 64 63 -1 -1 -1 -1 -1 -1 -1 -1 -1 -1 63 63 64 65 68 70 71 71 71 71 71 71 71 71 71 72 72 72 72 73 74 75 76 77 78 79 80 81 81 81 81 81 81 81 81 81 81 81 81 81 81 82 82 82 82 82 82 81 81 80 80 77 76 74 73 73
-1 -1 -1 -1 -1 -1 -1 -1 -1 -1 -1 -1 -1 -1 -1 -1 -1 -1 -1 -1 -1 63 63 63 63 63 63 63 63 63 63 63 63 63 64 64 64 64 64 64 64 64 64 65 67 69 69 69 69 69 68 68 68 68 67 67 67 67 67 66 66 65 65 65 65 65 64 64 64 64 64 64 64 64 64 64 64 64 64 64 64 64 64 64 64 63 63 63 63 -1 -1 -1 -1 -1 -1 -1 -1 -1 -1 -1 -1 -1 -1 -1 -1 -1 -1 -1 -1 -1 -1 -1 -1 -1 -1 -1 -1 -1 -1 -1 -1 -1 -1 -1 -1 -1 -1 -1 -1 -1 -1 -1 -1 -1 -1 -1 -1 -1 -1 -1 -1 -1 -1 63 65 67 69 70 70 70 71 71 71 71 71 71 71 71 71 70 69 68 68 68 67 67 67 68 69 70 71 72 72 72 72 71 71 70 69 68 66 64 63 64 67 69 70 67 64 63 -1 -1 -1 -1 -1 -1 -1 -1 -1 -1 -1 63 63 64 67 69 71 71 71 71 71 71 71 71 71 72 72 72 72 73 74 75 76 77 78 79 81 81 81 82 82 82 81 81 81 81 81 81 81 81 82 82 82 82 82 82 82 82 81 81 81 78 76 75 74 73
-1 -1 -1 -1 -1 -1 -1 -1 -1 -1 -1 -1 -1 -1 -1 -1 -1 -1 -1 -1 -1 -1 63 63 63 63 63 63 63 63 63 63 63 64 64 64 64 64 64 64 64 64 64 65 67 68 69 69 69 69 68 68 68 67 67 67 67 67 66 66 65 65 65 65 65 64 64 64 64 64 64 64 64 64 64 64 64 64 64 64 64 64 64 64 63 63 63 63 63 -1 -1 -1 -1 -1 -1 -1 -1 -1 -1 -1 -1 -1 -1 -1 -1 -1 -1 -1 -1 -1 -1 -1 -1 -1 -1 -1 -1 -1 -1 -1 -1 -1 -1 -1 -1 -1 -1 -1 -1 -1 -1 -1 -1 -1 -1 -1 -1 -1 -1 -1 -1 -1 -1 63 65 67 70 70 70 70 71 71 71 71 71 71 71 71 71 71 71 70 70 70 70 69 69 70 70 71 71 72 72 72 72 72 71 71 71 70 70 69 68 69 69 69 70 68 65 63 -1 -1 -1 -1 -1 -1 -1 -1 -1 -1 -1 -1 63 64 66 69 71 71 71 71 71 71 71 71 71 72 72 72 72 73 73 75 76 77 79 80 81 82 82 82 82 82 82 81 81 81 81 81 81 81 82 82 82 83 82 82 82 82 82 82 81 79 77 75 74 73
-1 -1 -1 -1 -1 -1 -1 -1 -1 -1 -1 -1 -1 -1 -1 -1 -1 -1 -1 -1 -1 -1 63 63 63 63 63 63 63 63 63 63 63 64 64 64 64 64 64 64 64 64 64 65 67 68 69 69 69 68 68 68 67 67 67 66 66 66 66 66 65 65 65 64 64 64 64 64 64 64 64 64 64 64 63 63 63 64 64 64 64 64 64 64 63 63 63 63 63 -1 -1 -1 -1 -1 -1 -1 -1 -1 -1 -1 -1 -1 -1 -1 -1 -1 -1 -1 -1 -1 -1 -1 -1 -1 -1 -1 -1 -1 -1 -1 -1 -1 -1 -1 -1 -1 -1 -1 -1 -1 -1 -1 -1 -1 -1 -1 -1 -1 -1 -1 -1 -1 -1 63 65 67 70 70 70 70 71 71 71 71 71 71 72 71 71 72 72 72 72 72 72 72 72 72 72 71 71 72 72 72 72 72 72 72 72 72 72 71 71 71 69 69 71 68 66 64 -1 -1 -1 -1 -1 -1 -1 -1 -1 -1 -1 -1 -1 64 65 68 71 71 71 71 71 71 71 72 72 72 72 72 72 73 73 75 76 78 79 81 81 82 82 82 82 82 82 81 81 81 81 81 81 82 82 82 82 83 83 83 83 83 82 82 82 79 77 76 75 74
-1 -1 -1 -1 -1 -1 -1 -1 -1 -1 -1 -1 -1 -1 -1 -1 -1 -1 -1 -1 -1 -1 63 63 63 63 63 63 63 63 63 63 63 63 64 64 64 64 64 64 64 64 64 64 66 67 67 67 68 68 68 68 67 67 66 66 66 66 65 65 65 65 64 64 64 64 64 64 64 64 64 64 64 63 63 63 63 63 63 63 64 64 64 63 63 63 63 63 -1 -1 -1 -1 -1 -1 -1 -1 -1 -1 -1 -1 -1 -1 -1 -1 -1 -1 -1 -1 -1 -1 -1 -1 -1 -1 -1 -1 -1 -1 -1 -1 -1 -1 -1 -1 -1 -1 -1 -1 -1 -1 -1 -1 -1 -1 -1 -1 -1 -1 -1 -1 -1 -1 -1 64 66 68 70 70 71 71 71 71 71 71 71 72 72 72 72 72 72 72 72 72 72 72 72 72 72 72 71 72 72 72 72 72 72 72 72 72 71 71 71 71 71 71 71 69 66 64 63 63 -1 -1 -1 -1 -1 -1 -1 -1 -1 -1 -1 63 65 68 68 71 71 71 71 71 71 72 72 72 72 72 72 73 74 75 76 78 79 80 80 80 82 82 83 82 82 82 81 81 81 81 82 82 82 83 83 83 82 82 81 81 82 82 82 80 78 76 75 74
-1 -1 -1 -1 -1 -1 -1 -1 -1 -1 -1 -1 -1 -1 -1 -1 -1 -1 -1 -1 -1 -1 63 63 63 63 63 63 63 63 63 63 63 63 64 64 64 64 64 64 64 64 64 64 65 65 66 66 67 67 68 67 67 67 66 66 65 65 65 65 65 64 64 64 64 64 64 64 64 64 64 63 63 63 63 63 63 63 63 63 63 63 64 63 63 63 63 63 -1 -1 -1 -1 -1 -1 -1 -1 -1 -1 -1 -1 -1 -1 -1 -1 -1 -1 -1 -1 -1 -1 -1 -1 -1 -1 -1 -1 -1 -1 -1 -1 -1 -1 -1 -1 -1 -1 -1 -1 -1 -1 -1 -1 -1 -1 -1 -1 -1 -1 -1 -1 -1 -1 63 64 66 68 70 71 71 71 71 71 71 71 71 72 72 72 72 72 72 72 72 72 72 72 72 72 72 72 72 72 72 72 72 72 72 72 72 72 71 71 71 71 71 71 70 69 67 66 64 63 -1 -1 -1 -1 -1 -1 -1 -1 -1 -1 -1 63 65 68 68 71 71 71 71 71 71 72 72 72 72 72 72 72 73 75 76 78 79 80 80 79 79 80 80 80 81 81 81 81 81 81 82 82 82 83 83 82 82 80 80 80 81 81 81 81 79 76 75 73
-1 -1 -1 -1 -1 -1 -1 -1 -1 -1 -1 -1 -1 -1 -1 -1 -1 -1 -1 -1 -1 -1 63 63 63 63 63 63 63 63 63 63 63 63 63 64 64 64 64 64 64 64 64 64 64 64 64 65 66 66 67 67 67 66 66 65 65 64 64 64 64 64 64 64 64 64 64 64 64 64 63 63 63 63 63 63 63 63 63 63 63 63 63 63 63 63 63 -1 -1 -1 -1 -1 -1 -1 -1 -1 -1 -1 -1 -1 -1 -1 -1 -1 -1 -1 -1 -1 -1 -1 -1 -1 -1 -1 -1 -1 -1 -1 -1 -1 -1 -1 -1 -1 -1 -1 -1 -1 -1 -1 -1 -1 -1 -1 -1 -1 -1 -1 -1 -1 -1 63 63 64 66 69 71 71 71 71 71 72 72 72 72 72 72 72 72 72 72 72 72 72 72 72 72 72 72 72 72 71 71 71 71 71 71 72 72 71 71 71 71 71 71 71 70 69 68 66 65 64 63 -1 -1 -1 -1 -1 -1 -1 -1 -1 -1 63 65 68 71 71 71 71 71 71 72 72 72 72 72 72 72 72 73 74 76 78 79 80 79 79 79 79 80 80 80 81 81 81 81 81 82 82 83 83 83 82 80 80 79 79 81 81 81 81 81 81 75 73
-1 -1 -1 -1 -1 -1 -1 -1 -1 -1 -1 -1 -1 -1 -1 -1 -1 -1 -1 -1 -1 -1 63 63 63 63 63 63 63 63 63 63 63 63 63 64 64 64 64 64 64 64 64 64 64 64 64 64 65 66 67 67 66 66 66 65 64 64 64 64 64 64 64 64 64 64 64 64 64 64 63 63 63 63 63 63 63 63 63 63 63 63 63 63 63 63 63 -1 -1 -1 -1 -1 -1 -1 -1 -1 -1 -1 -1 -1 -1 -1 -1 -1 -1 -1 -1 -1 -1 -1 -1 -1 -1 -1 -1 -1 -1 -1 -1 -1 -1 -1 -1 -1 -1 -1 -1 -1 -1 -1 -1 -1 -1 -1 -1 -1 -1 -1 -1 -1 63 63 63 65 67 69 71 71 72 72 72 72 72 72 72 72 72 72 72 72 72 72 72 72 72 72 72 72 72 72 72 71 71 71 71 71 71 71 71 71 71 71 71 71 71 70 70 69 68 67 66 65 63 -1 -1 -1 -1 -1 -1 -1 -1 -1 -1 -1 65 68 71 71 71 71 71 71 72 72 72 72 72 72 72 72 73 74 76 77 79 80 79 79 79 79 80 80 83 81 81 81 81 82 82 82 83 83 84 82 80 79 78 79 80 81 81 81 81 81 81 63
-1 -1 -1 -1 -1 -1 -1 -1 -1 -1 -1 -1 -1 -1 -1 -1 -1 -1 -1 -1 -1 -1 -1 63 63 63 63 63 63 63 63 63 63 63 63 63 64 64 64 64 64 64 64 64 64 64 64 64 64 65 66 65 65 65 65 64 64 64 64 64 64 64 64 64 64 64 64 64 64 64 63 63 63 63 63 63 63 63 63 63 63 63 64 63 63 63 63 -1 -1 -1 -1 -1 -1 -1 -1 -1 -1 -1 -1 -1 -1 -1 -1 -1 -1 -1 -1 -1 -1 -1 -1 -1 -1 -1 -1 -1 -1 -1 -1 -1 -1 -1 -1 -1 -1 -1 -1 -1 -1 -1 -1 -1 -1 -1 -1 -1 -1 -1 -1 -1 63 64 64 66 68 69 71 72 72 72 72 72 72 72 72 72 72 72 72 72 72 72 72 72 72 72 72 72 72 72 71 71 71 71 71 71 71 71 71 71 71 71 71 70 70 70 70 69 68 68 67 65 63 -1 -1 -1 -1 -1 -1 -1 -1 -1 -1 63 66 69 71 71 71 71 72 72 72 72 72 72 72 72 72 72 73 74 75 77 79 79 79 79 79 79 79 83 82 82 76 75 82 82 82 83 83 83 84 82 81 80 79 77 75 72 67 64 64 63 63 -1
-1 -1 -1 -1 -1 -1 -1 -1 -1 -1 -1 -1 -1 -1 -1 -1 -1 -1 -1 -1 -1 -1 -1 -1 -1 63 63 63 63 63 63 63 63 63 63 63 63 64 64 64 64 64 64 64 64 64 64 64 64 64 65 65 65 64 64 64 64 64 64 64 64 64 64 64 64 64 64 64 64 64 64 63 63 63 63 63 63 63 63 63 63 64 64 63 63 63 63 -1 -1 -1 -1 -1 -1 -1 -1 -1 -1 -1 -1 -1 -1 -1 -1 -1 -1 -1 -1 -1 -1 -1 -1 -1 63 63 63 63 63 63 -1 -1 -1 -1 -1 -1 -1 -1 -1 -1 -1 -1 -1 -1 -1 -1 -1 -1 -1 -1 -1 63 63 64 65 67 68 70 72 72 72 72 72 72 72 72 72 72 72 72 72 72 72 72 72 72 72 72 72 72 72 71 71 71 71 71 71 71 71 71 71 71 70 70 70 70 70 70 70 70 69 68 68 66 64 -1 -1 -1 -1 -1 -1 -1 -1 -1 -1 64 66 69 71 71 71 72 72 72 72 72 72 72 72 72 72 72 73 74 75 77 79 79 79 79 78 78 83 83 78 77 76 82 82 82 82 83 83 83 84 82 82 81 80 76 72 69 64 64 63 -1 -1 -1
-1 -1 -1 -1 -1 -1 -1 -1 -1 -1 -1 -1 -1 -1 -1 -1 -1 -1 -1 -1 -1 -1 -1 -1 -1 -1 -1 63 63 63 63 63 63 63 63 63 63 64 64 64 64 64 64 64 64 64 64 64 64 64 64 64 64 64 64 64 64 64 64 64 64 64 64 64 64 64 64 64 64 64 64 64 63 63 63 63 63 63 63 63 64 64 64 63 63 63 63 -1 -1 -1 -1 -1 -1 -1 -1 -1 -1 -1 -1 -1 -1 -1 -1 -1 -1 -1 -1 -1 -1 -1 63 63 63 63 64 63 63 63 63 63 63 -1 -1 -1 -1 -1 63 -1 -1 -1 -1 -1 -1 -1 -1 -1 -1 -1 -1 63 64 65 66 68 69 70 72 72 72 72 73 73 72 72 72 72 72 72 73 72 72 72 72 72 72 72 72 72 71 71 71 71 71 71 70 70 70 70 70 70 70 70 70 70 70 70 70 70 69 69 69 67 64 -1 -1 -1 -1 -1 -1 -1 -1 63 63 65 67 69 69 71 72 72 72 72 72 72 72 72 72 72 72 72 72 73 75 76 78 79 80 79 78 78 78 78 77 77 76 82 82 82 83 83 83 83 84 82 82 81 81 74 70 67 64 63 -1 -1 -1 -1
-1 -1 -1 -1 -1 -1 -1 -1 -1 -1 -1 -1 -1 -1 -1 -1 -1 -1 -1 -1 -1 -1 -1 -1 -1 -1 -1 -1 63 63 63 63 63 63 63 63 63 63 64 64 64 64 64 64 64 64 64 64 64 64 64 64 64 64 64 64 64 64 64 64 64 64 64 64 64 64 64 64 64 64 64 64 64 63 63 63 63 63 63 64 64 64 64 64 63 63 63 63 -1 -1 -1 -1 -1 -1 -1 -1 -1 -1 -1 -1 -1 -1 -1 -1 -1 -1 -1 -1 -1 63 63 63 64 64 64 64 64 63 63 63 63 63 63 63 63 63 63 63 -1 -1 -1 -1 -1 -1 -1 -1 -1 -1 -1 63 64 66 67 68 70 71 72 72 73 73 73 73 73 73 72 72 73 73 73 72 72 72 72 72 72 72 72 72 71 71 71 71 71 70 70 70 70 70 70 70 70 70 70 70 70 70 70 70 70 70 70 67 64 63 -1 -1 -1 -1 -1 -1 -1 63 64 66 68 69 69 71 72 72 72 72 72 72 72 72 72 72 72 72 72 73 74 76 77 79 80 79 78 78 78 78 78 77 77 82 83 83 83 83 83 83 84 82 82 81 81 72 69 65 63 -1 -1 -1 -1 -1
-1 -1 -1 -1 -1 -1 -1 -1 -1 -1 -1 -1 -1 -1 -1 -1 -1 -1 -1 -1 -1 -1 -1 -1 -1 -1 -1 -1 63 63 63 63 63 63 63 63 63 63 64 64 64 64 64 64 64 64 64 64 64 64 64 64 64 64 64 64 64 64 64 64 64 64 64 64 64 64 64 64 64 64 64 64 64 64 63 64 64 64 64 64 64 64 64 64 63 63 63 63 -1 -1 -1 -1 -1 -1 -1 -1 -1 -1 -1 -1 -1 -1 -1 -1 -1 -1 -1 -1 -1 63 63 64 64 64 64 64 64 64 63 63 63 63 63 63 63 63 63 63 63 -1 -1 -1 -1 -1 -1 -1 -1 63 63 64 66 67 68 69 70 71 73 73 74 74 74 74 74 73 73 73 73 73 73 73 73 72 72 72 72 72 72 72 71 71 71 71 71 70 70 70 70 70 70 70 70 70 70 70 70 70 70 70 70 70 70 68 65 63 -1 -1 -1 -1 -1 63 64 65 66 68 69 70 71 71 71 71 71 71 71 71 71 71 72 72 72 72 73 74 74 76 77 79 80 81 79 79 78 78 78 78 82 82 83 83 83 83 84 84 84 82 82 81 81 72 68 64 -1 -1 -1 -1 -1 -1
-1 -1 -1 -1 -1 -1 -1 -1 -1 -1 -1 -1 -1 -1 -1 -1 -1 -1 -1 63 63 63 63 63 63 -1 -1 -1 63 63 63 63 63 63 63 63 63 64 64 64 64 64 64 64 64 64 64 64 64 64 64 64 64 64 64 64 64 64 64 64 64 64 64 64 64 64 64 64 64 64 64 64 64 64 64 64 64 64 64 64 64 64 64 64 63 63 63 63 -1 -1 -1 -1 -1 -1 -1 -1 -1 -1 -1 -1 -1 -1 -1 -1 -1 -1 -1 -1 63 63 64 64 64 64 65 64 64 64 64 63 63 63 63 63 63 63 63 63 63 63 63 63 -1 -1 -1 63 63 63 64 65 67 68 69 70 71 72 74 74 74 74 75 75 74 74 74 74 74 74 74 74 73 73 72 72 72 72 72 72 71 71 71 71 71 70 70 70 70 70 70 70 70 69 69 70 70 70 70 70 70 70 70 68 66 64 63 63 63 64 64 65 66 67 68 69 70 71 72 71 71 71 70 70 70 70 70 71 71 72 72 73 73 74 75 76 77 79 80 81 81 81 82 82 82 82 82 83 83 83 83 84 84 84 84 82 82 81 81 72 68 64 -1 -1 -1 -1 -1 -1
-1 -1 -1 -1 -1 -1 -1 -1 -1 -1 -1 -1 -1 -1 -1 -1 -1 -1 63 63 63 63 63 63 63 -1 -1 -1 63 63 63 63 63 63 63 63 63 64 64 64 64 64 64 64 64 64 64 64 64 64 64 64 64 64 64 64 64 64 64 64 64 64 64 64 64 64 64 64 64 64 64 64 64 64 64 64 64 64 64 64 64 64 64 64 63 63 63 63 -1 -1 -1 -1 -1 -1 -1 -1 -1 -1 -1 -1 -1 -1 -1 -1 -1 -1 -1 -1 63 63 64 64 64 64 65 64 64 64 64 64 64 63 63 63 63 63 63 63 63 63 63 63 63 63 63 63 64 64 65 66 68 69 70 71 71 72 75 75 75 75 76 75 75 75 74 74 74 74 74 74 74 73 73 72 72 72 72 72 72 71 71 71 71 70 70 70 70 70 69 69 69 69 69 69 69 70 70 70 70 70 70 68 66 65 64 64 65 65 65 66 67 68 70 70 71 71 72 71 70 70 70 70 69 69 69 70 71 72 73 73 74 74 75 76 77 77 80 80 81 81 81 82 82 82 82 83 83 83 83 84 84 84 84 82 82 81 81 72 67 63 -1 -1 -1 -1 -1 -1
-1 -1 -1 -1 -1 -1 -1 -1 -1 -1 -1 -1 -1 -1 -1 -1 -1 63 63 63 63 63 63 63 63 -1 -1 -1 63 63 63 63 63 63 63 63 63 64 64 64 64 64 64 64 64 64 64 64 64 64 64 64 64 64 64 64 64 64 64 64 64 64 64 64 64 64 64 64 64 64 64 64 64 64 64 64 64 64 64 64 64 64 64 64 64 63 63 63 -1 -1 -1 -1 -1 -1 -1 -1 -1 -1 -1 -1 -1 -1 -1 -1 -1 -1 -1 -1 63 63 64 64 64 64 65 65 64 64 64 64 64 63 63 63 63 63 63 63 63 63 63 63 63 63 63 64 64 65 66 68 69 70 71 71 72 73 76 76 76 76 76 76 76 75 75 75 75 75 75 74 74 73 73 73 72 72 72 72 72 71 71 71 70 70 70 70 70 69 69 69 69 69 69 69 69 69 70 70 70 70 70 68 67 66 65 65 66 66 66 67 68 70 72 72 72 72 72 71 70 70 69 69 69 69 68 68 68 68 73 73 74 74 75 76 77 77 80 80 81 81 81 81 82 82 82 83 83 84 85 84 84 84 84 82 82 81 81 72 66 -1 -1 -1 -1 -1 -1 -1
-1 -1 -1 -1 -1 -1 -1 -1 -1 -1 -1 -1 -1 -1 -1 -1 -1 -1 63 63 63 63 63 63 63 63 -1 63 63 63 63 63 63 63 63 63 64 64 64 64 64 64 64 64 64 64 64 64 64 64 64 64 64 64 64 64 64 64 64 64 64 64 64 64 64 64 64 64 64 64 64 64 64 64 61 62 62 63 63 64 64 64 64 64 64 63 63 63 -1 -1 -1 -1 -1 -1 -1 -1 -1 -1 -1 -1 -1 -1 -1 -1 -1 -1 -1 -1 63 63 64 64 64 64 65 65 64 64 64 64 64 64 64 63 63 63 63 63 63 63 63 63 63 63 64 64 66 67 68 69 70 70 71 72 72 74 76 76 76 76 76 76 76 75 75 75 75 75 75 74 74 74 73 73 72 72 72 72 71 71 71 71 71 70 70 70 70 70 69 69 69 69 69 69 69 69 70 70 70 70 70 68 67 66 65 65 65 66 67 67 68 69 70 69 69 69 69 69 68 68 68 68 68 67 67 68 68 68 73 73 74 74 76 77 78 79 80 80 81 81 81 81 82 82 82 83 83 84 85 84 84 84 84 82 82 81 81 72 67 63 -1 -1 -1 -1 -1 -1
-1 -1 -1 -1 -1 -1 -1 -1 -1 -1 -1 -1 -1 -1 -1 -1 -1 -1 -1 63 63 63 63 63 63 63 63 63 63 63 63 63 63 63 63 62 -1 -1 62 64 64 64 64 64 64 64 64 64 64 64 64 64 64 64 64 64 64 64 64 64 64 64 64 64 64 64 65 64 64 64 64 64 64 64 61 62 62 62 63 64 64 64 64 64 64 63 63 63 63 -1 -1 -1 -1 -1 -1 -1 -1 -1 -1 -1 -1 -1 -1 -1 -1 -1 -1 -1 63 63 64 64 64 64 64 65 64 64 64 64 64 64 64 64 64 64 64 63 63 63 63 63 64 64 64 67 69 69 69 70 71 71 72 72 73 75 76 76 76 76 76 76 76 76 75 75 75 75 75 74 74 74 73 72 72 72 72 72 71 71 71 71 71 70 70 70 70 70 69 69 69 69 69 69 69 69 70 70 70 70 70 68 67 66 65 65 65 67 67 67 68 68 68 68 68 68 67 67 67 66 66 66 66 66 66 68 68 68 68 73 74 74 76 77 78 79 80 80 80 81 81 81 82 82 82 83 83 84 85 85 84 84 84 83 82 82 81 72 67 63 -1 -1 -1 -1 -1 -1
-1 -1 -1 -1 -1 -1 -1 -1 -1 -1 -1 -1 -1 -1 -1 -1 -1 -1 -1 -1 -1 63 63 63 63 63 63 63 63 63 63 63 63 63 -1 -1 -1 -1 -1 -1 -1 64 64 64 64 64 64 64 64 64 64 64 64 64 64 64 64 64 64 64 64 64 64 64 64 65 65 65 65 64 64 64 64 64 61 62 62 63 63 64 64 64 64 64 64 63 63 63 63 -1 -1 -1 -1 -1 -1 -1 -1 -1 -1 -1 -1 -1 -1 -1 -1 -1 -1 -1 63 63 64 64 64 64 64 65 64 64 64 64 64 64 64 64 64 64 64 64 64 63 63 63 64 64 66 69 70 71 71 71 72 72 72 73 75 76 77 77 76 76 76 76 76 76 75 75 75 75 75 74 74 74 73 72 72 72 72 72 71 71 71 71 71 71 70 70 70 70 69 69 69 69 69 69 69 69 69 70 70 70 70 68 67 66 65 66 66 67 67 67 67 68 68 67 67 66 66 66 65 65 65 65 65 65 65 67 68 68 68 73 74 75 77 77 78 79 80 80 80 81 81 81 82 82 82 83 84 84 85 85 84 84 84 83 82 82 82 72 68 64 -1 -1 -1 -1 -1 -1
-1 -1 -1 -1 -1 -1 -1 -1 -1 -1 -1 -1 -1 -1 -1 -1 -1 -1 -1 -1 -1 -1 -1 63 63 63 63 63 63 63 63 62 62 -1 -1 -1 -1 -1 -1 -1 -1 62 64 64 64 64 64 64 64 64 64 64 64 64 64 64 64 64 64 64 64 64 64 64 64 65 66 65 65 65 64 64 64 64 64 64 64 64 64 64 64 64 64 64 64 63 63 63 63 -1 -1 -1 -1 -1 -1 -1 -1 -1 -1 -1 -1 -1 -1 -1 -1 -1 -1 -1 63 63 64 64 64 64 65 65 64 64 64 64 64 64 64 64 64 64 64 64 64 64 63 64 64 65 69 71 72 72 72 72 73 74 75 75 76 77 77 77 76 76 76 76 76 76 76 75 75 75 75 74 74 73 73 72 72 72 72 72 71 71 71 71 71 71 71 70 70 70 70 69 69 69 69 69 69 69 69 70 70 70 70 68 67 66 64 66 67 67 68 67 67 67 66 66 66 65 65 65 64 64 63 64 64 64 65 66 68 70 73 73 74 75 77 78 78 79 80 80 80 81 81 81 82 82 82 83 84 84 85 85 84 84 84 83 83 82 82 72 68 65 63 -1 -1 -1 -1 -1
-1 -1 -1 -1 -1 -1 -1 -1 -1 -1 -1 -1 -1 -1 -1 -1 -1 -1 -1 -1 -1 -1 -1 63 63 63 63 63 63 63 62 -1 -1 -1 -1 -1 -1 -1 -1 -1 -1 62 64 64 64 64 64 64 64 64 64 64 64 64 64 64 64 64 64 64 64 64 64 64 65 65 66 66 65 65 65 64 64 64 64 64 64 64 64 64 64 64 64 64 64 63 63 63 -1 -1 -1 -1 -1 -1 -1 -1 -1 -1 -1 -1 -1 -1 -1 -1 -1 -1 -1 -1 63 63 64 64 64 64 65 65 64 64 64 64 64 64 64 64 64 64 65 64 64 64 64 64 65 67 70 71 72 72 72 72 73 74 74 75 76 77 77 76 76 75 74 74 75 75 75 76 76 75 75 75 74 73 73 72 72 72 72 72 71 71 71 71 71 71 70 70 70 70 70 69 69 69 69 69 69 69 69 70 70 70 70 68 67 65 64 65 66 67 67 67 66 66 66 65 65 64 64 64 63 63 63 63 63 64 64 65 67 68 70 71 72 73 77 78 78 79 80 80 80 81 81 81 81 82 82 83 83 84 85 84 84 83 83 83 82 82 82 73 69 66 64 63 -1 -1 -1 -1
-1 -1 -1 -1 -1 -1 -1 -1 -1 -1 -1 -1 -1 -1 -1 -1 -1 -1 -1 -1 -1 -1 -1 -1 63 63 63 63 63 62 -1 -1 -1 -1 -1 -1 -1 -1 -1 -1 -1 64 64 64 64 64 64 64 64 64 64 64 64 64 64 64 64 64 64 64 64 64 64 65 65 66 67 66 66 65 65 65 65 64 64 64 64 64 64 64 64 64 64 64 64 63 63 63 -1 -1 -1 -1 -1 -1 -1 -1 -1 -1 -1 -1 -1 -1 -1 -1 -1 -1 -1 -1 63 63 64 64 64 64 65 65 65 64 64 64 64 65 65 65 65 65 65 64 64 64 64 65 67 69 71 71 72 72 72 72 73 73 74 75 76 76 77 76 74 72 72 72 73 73 77 77 76 76 76 75 75 73 72 72 72 72 72 72 71 71 71 71 71 71 70 70 70 70 70 70 70 69 69 69 69 69 69 70 70 70 70 68 66 65 64 64 65 66 66 66 66 65 65 65 64 63 63 63 -1 -1 -1 -1 63 63 64 65 65 66 67 69 70 72 77 78 78 79 79 80 80 80 81 81 81 81 82 82 83 84 84 84 83 83 83 82 82 82 82 74 70 67 64 63 -1 -1 -1 -1
-1 -1 -1 -1 -1 -1 -1 -1 -1 -1 63 63 63 63 63 63 -1 -1 -1 -1 -1 -1 -1 -1 63 63 63 63 63 62 -1 -1 -1 -1 -1 -1 -1 -1 -1 64 64 64 64 64 64 64 64 64 64 64 64 64 64 64 64 64 64 64 64 64 64 64 65 65 65 66 67 67 66 66 66 65 65 65 65 65 64 64 64 64 64 64 64 64 63 63 63 63 -1 -1 -1 -1 -1 -1 -1 -1 -1 -1 -1 -1 -1 -1 -1 -1 -1 -1 -1 -1 63 63 64 64 64 64 65 65 65 65 64 65 65 65 65 65 65 65 65 65 65 64 64 66 68 70 71 71 72 72 72 72 72 73 74 75 76 76 78 75 72 72 71 72 73 73 78 77 77 76 76 75 75 73 72 72 72 72 72 72 71 71 71 71 71 71 70 70 70 70 70 70 70 69 69 69 69 69 70 70 70 70 70 68 66 64 63 64 64 66 66 65 65 65 64 64 63 -1 -1 -1 -1 -1 -1 -1 63 63 64 64 64 65 65 67 69 71 77 78 78 79 79 80 80 80 80 81 81 81 82 82 83 83 84 83 83 83 82 82 82 82 81 75 71 68 65 64 64 -1 -1 -1
-1 -1 -1 -1 -1 -1 -1 -1 -1 63 63 63 63 63 63 63 63 63 -1 -1 -1 -1 -1 -1 -1 63 63 63 63 62 -1 -1 -1 -1 -1 -1 -1 64 64 64 64 64 64 64 64 64 64 64 64 64 64 64 64 64 64 64 64 64 64 64 64 65 65 65 66 66 67 67 67 66 66 66 66 65 65 65 65 65 64 64 64 64 64 64 63 63 63 -1 -1 -1 -1 -1 -1 -1 -1 -1 -1 -1 -1 -1 -1 -1 -1 -1 -1 -1 -1 -1 63 63 64 64 64 64 65 65 65 65 65 65 65 65 66 65 65 65 65 65 65 65 66 68 70 71 71 72 72 72 72 72 72 72 73 75 76 77 78 75 72 71 70 71 72 74 78 78 77 77 76 75 74 73 72 72 72 72 72 72 71 71 71 71 71 70 70 70 70 70 70 70 70 70 69 69 70 70 70 70 70 70 70 68 66 64 63 63 63 64 64 64 64 64 64 63 -1 -1 -1 -1 -1 -1 -1 -1 -1 63 63 64 64 64 64 66 68 71 77 77 78 79 79 79 80 80 80 80 81 81 81 82 82 83 83 83 83 82 82 82 82 82 81 76 72 69 66 64 64 -1 -1 -1
-1 -1 -1 -1 -1 -1 -1 -1 63 63 63 63 63 63 63 63 63 63 63 -1 -1 -1 -1 -1 63 63 63 63 63 62 -1 -1 -1 -1 -1 -1 64 -1 -1 64 64 64 64 64 64 64 64 64 64 64 64 64 64 64 64 64 64 64 64 65 65 65 65 66 66 67 67 67 67 66 66 66 66 65 65 65 64 64 64 64 64 64 64 63 63 63 -1 -1 -1 -1 -1 -1 -1 -1 -1 -1 -1 -1 -1 -1 -1 -1 -1 -1 -1 -1 -1 -1 63 63 64 64 64 64 65 65 65 65 65 65 65 66 66 66 66 66 66 66 66 66 66 68 68 69 70 70 70 70 71 71 72 72 73 74 75 76 77 75 72 71 71 71 71 72 73 74 75 75 76 75 74 73 72 72 72 72 72 72 71 71 71 71 71 70 70 70 70 70 70 70 70 70 69 69 70 70 70 70 70 70 70 67 65 64 -1 63 63 63 63 63 63 63 63 63 -1 -1 -1 -1 -1 -1 -1 -1 63 63 64 64 64 65 65 66 68 71 73 76 77 78 79 79 79 79 80 80 80 81 81 82 82 83 83 83 83 82 82 79 77 75 73 71 69 67 65 64 -1 -1 -1 -1
-1 -1 -1 -1 -1 -1 -1 63 63 63 63 63 63 63 63 63 63 63 63 63 -1 -1 -1 63 63 63 63 63 63 62 62 -1 -1 -1 -1 -1 -1 -1 -1 -1 64 64 64 64 64 64 64 64 64 64 64 64 64 64 64 64 64 65 65 65 65 66 66 66 67 67 68 67 67 66 66 66 65 65 65 64 64 64 64 64 64 64 64 63 63 63 -1 -1 -1 -1 -1 -1 -1 -1 -1 -1 -1 -1 -1 -1 -1 -1 -1 -1 -1 -1 -1 -1 63 63 64 64 64 65 65 65 65 65 65 65 66 66 66 66 67 67 67 67 67 67 67 67 68 68 68 68 68 69 69 70 71 72 73 74 74 75 76 75 72 72 71 71 71 72 72 72 72 74 75 75 75 73 72 72 72 72 72 71 71 71 71 71 71 71 70 70 70 70 70 70 70 70 70 70 70 70 70 70 70 70 70 67 65 63 63 -1 -1 63 63 63 63 63 -1 -1 -1 -1 -1 -1 -1 -1 -1 63 63 64 64 65 65 66 66 67 69 71 71 76 76 77 78 79 79 79 80 80 80 81 81 82 82 83 83 83 83 82 82 76 73 72 71 69 68 66 64 63 -1 -1 -1 -1
-1 -1 -1 -1 -1 -1 -1 63 63 63 63 63 63 63 63 63 63 63 63 63 63 63 63 63 63 63 63 63 63 63 62 62 62 62 -1 -1 -1 -1 -1 -1 64 64 64 64 64 64 64 64 64 64 64 64 64 64 64 64 64 65 65 66 66 67 67 67 67 67 68 67 67 66 66 66 65 65 64 64 64 64 64 64 64 63 63 63 63 -1 -1 -1 -1 -1 -1 -1 -1 -1 -1 -1 -1 -1 -1 -1 -1 -1 -1 -1 -1 -1 -1 -1 63 63 64 64 64 65 65 65 65 65 65 66 66 66 67 67 67 67 68 68 67 67 67 67 67 67 67 67 67 67 67 69 71 72 73 73 74 75 75 75 73 72 72 72 71 71 71 71 72 73 75 75 75 73 72 72 72 72 72 71 71 71 71 71 71 71 70 70 70 70 70 70 70 70 70 70 70 70 70 69 69 69 69 67 64 63 63 -1 -1 -1 -1 -1 -1 -1 -1 -1 -1 -1 -1 -1 -1 63 63 63 64 64 64 65 66 66 67 68 69 71 71 75 76 77 78 78 79 79 79 80 80 81 81 81 82 82 83 83 83 82 82 75 72 71 70 68 67 65 64 63 -1 -1 -1 -1
-1 -1 -1 -1 -1 -1 -1 63 63 63 63 63 63 63 63 63 63 63 63 63 63 63 63 63 63 63 63 63 63 63 63 63 63 62 -1 -1 -1 -1 -1 -1 64 64 64 64 64 64 64 64 64 64 64 64 64 64 64 64 65 65 66 67 67 67 68 68 68 68 68 67 67 67 66 66 65 65 64 64 64 64 64 63 63 63 63 63 63 -1 -1 -1 -1 -1 -1 -1 -1 -1 -1 -1 -1 -1 -1 -1 -1 -1 -1 -1 -1 -1 -1 63 63 63 64 64 64 65 65 66 66 66 66 66 66 67 67 67 68 68 69 68 68 68 67 67 66 66 66 65 65 64 64 67 70 72 73 73 74 74 75 75 74 74 73 72 71 71 70 71 72 72 75 74 74 73 73 72 72 72 72 71 71 71 71 71 71 71 70 70 70 70 70 70 70 70 70 70 70 70 70 69 69 69 69 66 64 63 -1 -1 -1 -1 -1 -1 -1 -1 -1 -1 -1 -1 -1 -1 63 63 64 64 64 65 65 66 67 67 68 68 69 71 74 74 75 76 78 78 78 79 79 79 80 80 81 81 82 82 83 83 83 83 82 73 71 70 69 68 66 65 63 -1 -1 -1 -1 -1
-1 -1 -1 -1 -1 -1 63 63 63 63 63 63 63 63 63 63 63 63 63 63 63 63 63 63 63 63 63 63 63 63 64 64 64 62 -1 -1 -1 -1 -1 -1 64 64 64 64 64 64 64 64 64 64 64 64 64 64 64 64 65 65 66 66 67 67 68 68 67 67 67 67 66 66 65 65 64 64 64 64 64 64 64 63 63 63 63 63 -1 -1 -1 -1 -1 -1 -1 -1 -1 -1 -1 -1 -1 -1 -1 -1 -1 -1 63 63 63 63 63 63 64 64 65 65 65 66 66 66 66 66 66 66 66 67 67 67 68 68 69 68 67 67 66 66 66 65 65 65 64 64 64 66 68 69 71 71 71 71 71 71 71 71 70 70 70 69 69 70 71 71 72 72 72 72 72 72 72 72 71 71 71 71 71 71 71 70 70 70 70 70 70 70 69 69 69 69 69 69 69 69 69 69 68 66 64 63 -1 -1 -1 -1 -1 -1 -1 -1 -1 -1 -1 63 63 64 64 64 65 66 66 66 66 67 67 68 68 69 69 70 72 72 71 71 71 71 72 74 76 76 77 77 78 78 78 76 75 75 75 74 74 71 70 69 68 67 66 64 63 -1 -1 -1 -1 -1
-1 -1 -1 -1 -1 -1 63 63 63 63 63 63 63 63 63 63 63 63 63 63 63 63 63 63 63 63 63 63 63 64 64 64 64 64 -1 -1 -1 -1 -1 -1 64 64 64 64 64 64 64 64 64 64 64 64 64 64 64 64 65 65 66 66 67 67 67 67 67 67 66 66 65 65 64 64 64 64 64 64 64 64 63 63 63 63 63 -1 -1 -1 -1 -1 -1 -1 -1 -1 -1 -1 -1 -1 -1 -1 -1 -1 -1 -1 63 63 63 64 64 64 64 65 66 66 66 66 66 66 66 66 66 66 67 67 67 67 68 68 68 68 67 66 65 65 65 65 65 65 64 64 64 65 66 67 68 68 68 68 68 68 68 68 68 68 68 68 67 68 69 70 72 72 72 72 72 72 72 72 71 71 71 71 71 71 70 70 70 70 70 70 70 70 69 69 68 68 69 69 69 69 69 68 68 66 64 63 -1 -1 -1 -1 -1 -1 -1 -1 -1 -1 63 64 65 66 67 67 68 68 68 68 68 68 68 69 69 69 70 70 71 70 69 68 67 68 69 68 74 74 75 75 76 75 73 71 69 70 71 71 71 70 69 68 67 66 65 64 63 63 -1 -1 -1 -1
-1 -1 -1 -1 -1 -1 63 63 63 63 63 63 63 63 63 63 63 63 63 63 63 63 63 63 63 63 63 63 64 64 64 64 64 64 64 64 64 64 64 64 64 64 64 64 64 64 64 64 64 64 64 64 64 64 64 64 64 65 66 66 66 67 67 67 66 66 65 65 64 64 64 64 64 64 64 64 64 63 63 63 63 63 -1 -1 -1 -1 -1 -1 -1 -1 -1 -1 -1 -1 -1 -1 -1 -1 -1 -1 -1 -1 63 64 64 64 65 65 66 67 67 67 67 67 67 67 67 66 66 66 67 67 67 68 68 68 68 67 66 65 65 64 64 64 64 64 64 64 64 64 65 65 66 66 66 66 66 68 68 66 66 66 68 68 65 67 68 69 69 71 71 72 72 72 72 72 71 71 71 71 70 70 70 70 70 70 70 70 70 69 69 68 67 68 68 69 69 69 68 68 67 66 66 63 63 -1 -1 -1 -1 -1 -1 -1 -1 -1 63 66 69 69 70 70 70 70 70 70 70 70 70 70 70 70 70 70 69 68 67 65 63 64 64 66 71 73 73 74 74 72 66 64 63 64 66 68 69 68 67 67 66 65 64 64 64 63 63 63 -1 -1
-1 -1 -1 -1 -1 63 63 63 63 63 63 63 63 63 63 63 63 63 63 63 63 63 63 63 63 63 63 63 64 64 64 64 64 64 64 64 64 64 64 64 64 64 64 64 64 64 64 64 64 64 64 64 64 64 64 64 64 65 66 66 66 66 66 66 65 65 64 64 64 64 64 64 64 64 64 64 63 63 63 63 63 63 -1 -1 -1 -1 -1 -1 -1 -1 -1 -1 -1 -1 -1 -1 -1 -1 -1 -1 -1 63 64 64 65 66 67 67 67 68 68 68 68 67 67 67 67 67 66 67 67 67 67 68 68 68 68 67 66 65 64 64 64 64 64 64 64 64 64 64 64 64 64 64 63 63 63 63 63 63 64 63 63 63 63 64 66 69 69 70 71 71 72 72 72 71 71 71 71 71 70 70 70 70 70 70 70 70 70 69 68 67 66 67 68 69 69 69 68 68 67 66 66 64 63 63 -1 -1 -1 -1 -1 -1 -1 -1 64 68 72 72 72 70 70 72 72 72 72 72 72 72 73 71 70 70 68 67 64 63 -1 -1 -1 63 64 64 64 73 74 64 63 -1 -1 -1 63 64 66 65 65 65 64 64 64 64 64 63 63 63 63 63
-1 -1 -1 -1 -1 63 63 63 63 63 63 63 63 63 63 63 63 63 63 63 63 63 63 63 63 63 63 63 64 64 64 64 64 64 64 64 64 64 64 64 64 64 64 64 64 64 64 64 64 64 64 64 64 64 64 64 64 64 64 65 65 65 66 65 65 64 64 64 64 64 64 64 64 64 64 63 63 63 63 -1 -1 -1 -1 -1 -1 -1 -1 -1 -1 -1 -1 -1 -1 -1 -1 -1 -1 -1 -1 -1 -1 63 64 64 65 66 67 67 68 68 68 68 68 68 68 67 67 67 67 67 67 67 67 67 68 68 68 67 66 65 64 64 64 64 64 64 64 64 64 64 64 64 64 64 64 64 64 64 64 64 64 64 63 63 63 64 66 67 68 69 70 71 72 72 71 71 71 71 71 71 70 70 70 70 70 70 70 69 69 68 67 66 65 66 67 68 69 68 68 68 67 66 65 64 63 63 63 -1 -1 -1 -1 -1 -1 63 65 69 72 72 72 72 73 73 72 72 72 72 72 73 73 71 69 68 66 65 63 -1 -1 -1 -1 -1 63 63 63 63 63 63 -1 -1 -1 -1 -1 63 64 64 65 65 66 65 65 65 64 64 64 64 64 64
-1 -1 -1 -1 -1 63 63 63 63 63 63 63 63 63 63 63 63 63 63 63 63 63 63 63 63 63 63 63 64 64 64 64 64 64 64 64 64 64 64 64 64 64 64 64 64 64 64 64 64 64 64 64 64 64 64 64 64 64 64 64 64 64 65 64 64 64 64 64 64 64 64 64 64 64 63 63 63 -1 -1 -1 -1 -1 -1 -1 -1 -1 -1 -1 -1 -1 -1 -1 -1 -1 -1 -1 -1 -1 -1 -1 63 63 64 64 65 66 67 67 68 68 68 68 68 68 68 67 67 68 67 67 67 67 67 67 67 68 68 66 66 65 65 65 65 65 65 65 65 64 64 64 64 64 64 64 64 64 64 64 64 64 64 64 64 63 63 64 65 66 67 68 69 70 71 71 71 71 71 71 71 71 70 70 70 70 70 69 69 69 68 67 66 65 64 64 66 67 68 68 68 68 67 67 66 65 64 63 63 -1 -1 -1 -1 -1 -1 64 66 69 72 72 73 73 73 73 73 72 72 72 72 73 73 70 68 66 64 63 -1 -1 -1 -1 -1 -1 -1 -1 -1 -1 -1 -1 -1 -1 -1 -1 -1 -1 63 64 64 66 66 67 67 67 67 67 67 67 67 67
-1 -1 -1 -1 -1 63 63 63 63 63 63 63 63 63 63 63 63 63 63 63 63 63 63 63 63 63 63 63 64 64 64 64 64 64 64 64 64 64 64 64 64 64 64 64 64 64 64 64 64 64 64 64 64 64 64 64 64 64 64 64 64 64 64 64 64 64 64 64 64 64 64 64 64 64 63 63 -1 -1 -1 -1 -1 -1 -1 -1 -1 -1 -1 -1 -1 -1 -1 -1 -1 -1 -1 -1 -1 -1 -1 63 63 63 64 64 65 67 67 68 68 68 68 68 68 68 68 68 68 68 68 68 68 68 68 67 67 67 67 66 66 66 65 65 65 65 65 65 65 65 65 64 64 64 64 64 64 64 64 64 64 64 64 64 64 64 64 64 64 65 65 67 69 70 71 71 71 71 71 71 70 70 70 70 70 70 70 69 69 68 68 67 66 64 63 64 65 66 68 68 68 68 68 67 66 66 65 64 63 -1 -1 -1 -1 63 63 64 67 69 72 72 73 73 73 73 73 72 72 72 72 73 73 70 67 64 -1 -1 -1 -1 -1 -1 -1 -1 -1 -1 -1 -1 -1 -1 -1 -1 -1 -1 -1 -1 -1 63 64 66 67 68 68 69 70 70 69 69 69 69
-1 -1 -1 -1 -1 63 63 63 63 63 63 63 63 63 63 63 63 63 63 63 63 63 63 63 63 63 63 63 64 64 64 64 64 64 64 64 64 64 64 64 64 64 64 64 64 64 64 64 64 64 64 64 64 64 64 64 64 64 64 64 64 64 64 64 64 64 64 64 64 64 64 64 64 63 63 63 -1 -1 -1 -1 -1 -1 -1 -1 -1 -1 -1 -1 -1 -1 -1 -1 -1 -1 -1 -1 -1 -1 63 63 63 64 64 64 66 67 68 68 68 68 68 68 68 68 68 68 68 68 68 68 68 68 68 67 67 67 66 66 66 66 66 66 66 66 66 65 65 65 65 65 64 64 64 64 64 64 64 64 64 64 64 64 64 64 64 64 64 64 64 66 68 69 71 71 71 71 71 71 70 70 70 70 70 70 70 69 68 68 67 66 65 64 63 63 64 65 67 67 67 68 68 67 67 66 66 65 63 63 -1 -1 63 63 64 65 67 69 72 72 73 73 73 73 73 73 72 72 72 73 73 69 66 63 -1 -1 -1 -1 -1 -1 -1 -1 -1 -1 -1 -1 -1 -1 -1 -1 -1 -1 -1 -1 -1 63 64 66 68 68 70 72 80 80 80 80 80 80
-1 -1 -1 -1 63 63 63 63 63 63 63 63 63 63 63 63 63 63 63 63 63 63 63 63 63 63 63 64 64 64 64 64 64 64 65 64 64 64 64 64 64 64 64 64 64 64 64 64 64 64 64 64 64 64 64 64 64 64 63 63 64 64 64 64 63 63 63 63 63 63 63 63 63 63 63 -1 -1 -1 -1 -1 -1 -1 -1 -1 -1 -1 -1 -1 -1 -1 -1 -1 -1 -1 -1 -1 -1 -1 63 63 63 64 64 65 66 67 68 68 68 68 68 68 68 68 68 68 68 68 68 68 68 68 68 68 67 67 67 67 66 66 66 66 66 66 66 66 65 65 65 65 65 65 64 64 64 64 64 64 64 64 64 64 64 64 64 64 64 64 64 66 67 69 69 70 70 70 70 70 70 70 70 70 70 70 70 69 68 67 66 65 64 63 63 63 64 64 65 66 67 67 67 67 66 66 66 65 64 63 -1 63 63 64 65 66 68 70 72 72 72 73 73 73 72 72 72 72 71 71 71 68 65 63 -1 -1 -1 -1 -1 -1 -1 -1 -1 -1 -1 -1 -1 -1 -1 -1 -1 -1 -1 -1 -1 64 65 67 68 69 70 72 79 79 79 79 79 79
-1 -1 -1 -1 63 63 63 63 63 63 63 63 63 63 63 63 63 63 63 63 63 63 63 63 63 63 63 64 64 64 64 64 65 66 67 66 65 65 64 64 64 64 64 64 64 64 64 64 64 64 64 64 64 64 64 64 64 63 63 63 63 63 63 63 63 -1 -1 -1 -1 -1 -1 -1 -1 -1 -1 -1 -1 -1 -1 -1 -1 -1 -1 -1 -1 -1 -1 -1 -1 -1 -1 -1 -1 -1 -1 -1 -1 -1 63 63 63 64 64 65 66 67 67 68 68 68 68 68 68 68 68 68 68 68 69 69 68 68 68 68 68 67 67 67 67 67 66 66 66 66 66 66 66 65 65 65 65 65 65 64 64 64 64 64 64 64 64 64 64 64 64 64 64 64 64 65 67 67 70 70 70 70 70 70 70 70 70 70 70 70 70 68 67 66 65 64 63 63 63 63 63 64 64 65 66 66 67 66 66 66 65 65 64 64 63 64 64 65 66 67 68 70 72 72 72 72 73 72 72 72 72 71 71 70 69 67 65 63 -1 -1 -1 -1 -1 -1 -1 -1 -1 -1 -1 -1 -1 -1 -1 -1 -1 -1 -1 -1 63 64 66 67 69 69 71 72 79 79 79 79 79 79
-1 -1 -1 -1 63 63 63 63 63 63 63 63 63 63 63 63 63 63 63 63 63 63 63 63 63 63 63 64 64 64 64 65 66 67 69 67 66 66 65 64 64 64 64 64 64 64 64 64 64 64 64 64 64 64 64 64 63 63 63 63 63 63 63 -1 -1 -1 -1 -1 -1 -1 -1 -1 -1 -1 -1 -1 -1 -1 -1 -1 -1 -1 -1 -1 -1 -1 -1 -1 -1 -1 -1 -1 -1 -1 -1 -1 -1 -1 63 63 63 64 64 65 66 67 67 67 68 68 68 68 68 68 68 68 69 69 69 69 69 69 69 68 68 68 67 67 67 67 67 67 66 66 66 66 66 65 65 65 65 65 65 65 65 64 64 64 64 64 64 64 64 64 64 64 64 64 64 65 67 67 69 70 70 70 70 70 70 70 70 70 70 69 69 68 66 65 64 63 63 -1 -1 -1 63 63 64 64 65 65 66 66 66 66 65 65 64 64 64 65 66 66 67 68 69 70 72 72 72 72 72 72 72 72 72 71 70 69 68 67 65 63 -1 -1 -1 -1 -1 -1 -1 -1 -1 -1 -1 -1 -1 -1 -1 -1 -1 -1 -1 63 64 65 66 68 68 70 71 73 78 78 79 79 79 79
-1 -1 -1 -1 63 63 63 63 63 63 63 63 63 63 63 63 63 63 63 63 63 63 63 63 63 63 63 64 64 64 64 66 67 69 70 69 67 66 65 65 64 64 64 64 64 64 64 64 64 64 64 64 64 64 64 64 63 63 63 63 63 -1 -1 -1 -1 -1 -1 -1 -1 -1 -1 -1 -1 -1 -1 -1 -1 -1 -1 -1 -1 -1 -1 -1 -1 -1 -1 -1 -1 -1 -1 -1 -1 -1 -1 -1 -1 -1 63 63 63 64 64 65 66 66 67 67 67 68 68 68 68 68 68 69 69 69 69 69 69 69 69 68 68 68 67 67 67 67 67 67 67 67 66 66 66 65 65 65 65 65 65 65 65 65 64 64 64 64 64 64 64 64 64 64 64 64 64 65 67 68 70 70 70 70 70 70 70 70 69 69 69 69 69 67 65 64 -1 -1 -1 -1 -1 -1 -1 63 63 64 64 65 65 65 66 66 65 65 65 65 65 66 67 67 68 69 70 71 72 72 72 72 72 72 72 72 72 70 69 68 68 66 65 -1 -1 -1 -1 -1 -1 -1 -1 -1 -1 -1 -1 -1 -1 -1 -1 -1 -1 -1 -1 64 65 66 67 68 68 71 71 73 78 78 78 78 79 79
-1 -1 -1 -1 63 63 63 63 63 63 63 63 63 63 63 63 63 63 63 63 63 63 63 63 63 63 63 64 64 64 64 66 67 68 69 68 67 66 65 64 64 64 64 64 64 64 64 64 64 64 64 64 64 64 64 63 63 63 63 -1 -1 -1 -1 -1 -1 -1 -1 -1 -1 -1 -1 -1 -1 -1 -1 -1 -1 -1 -1 -1 -1 -1 -1 -1 -1 -1 -1 -1 -1 -1 -1 -1 -1 -1 -1 -1 -1 -1 63 63 64 64 65 65 66 67 67 67 67 67 68 68 68 68 69 69 69 69 69 69 69 69 69 69 68 68 68 68 68 67 67 67 67 67 67 66 66 66 65 65 65 65 65 65 65 65 65 65 65 64 64 64 64 64 64 64 64 64 64 65 67 68 69 69 69 69 69 69 69 69 69 69 69 68 68 66 64 63 -1 -1 -1 -1 -1 -1 -1 63 63 63 64 64 65 64 64 64 64 64 64 65 65 66 66 67 68 69 70 71 72 72 72 72 72 72 72 72 72 70 69 68 68 66 64 -1 -1 -1 -1 -1 -1 -1 -1 -1 -1 -1 -1 -1 -1 -1 -1 -1 -1 -1 -1 64 65 66 67 69 71 71 72 74 77 78 78 78 78 79
-1 -1 -1 -1 -1 63 63 63 63 63 63 63 63 63 63 63 63 63 63 63 63 63 63 63 63 63 63 64 64 64 64 65 67 68 69 68 67 65 64 64 64 64 64 64 64 64 64 64 64 64 64 64 64 63 63 63 63 63 -1 -1 -1 -1 -1 -1 -1 -1 -1 -1 -1 -1 -1 -1 -1 -1 -1 -1 -1 -1 -1 -1 -1 -1 -1 -1 -1 -1 -1 -1 -1 -1 -1 -1 -1 -1 -1 -1 -1 63 63 64 64 64 65 66 66 67 67 67 67 67 68 68 68 68 69 69 69 69 69 69 69 69 69 69 69 68 68 68 68 68 68 67 67 67 67 66 66 66 66 66 66 66 66 65 65 65 65 65 65 64 64 64 64 64 64 64 64 64 64 65 66 68 69 69 69 69 69 69 69 69 69 68 68 67 65 64 63 63 -1 -1 -1 -1 -1 -1 -1 63 63 63 63 64 64 64 64 64 64 64 64 65 65 66 66 67 68 68 69 70 72 72 72 72 72 72 72 72 72 70 69 69 68 66 64 64 -1 -1 -1 -1 -1 -1 -1 -1 -1 -1 -1 -1 -1 -1 -1 -1 -1 -1 -1 63 64 66 68 69 71 72 73 75 77 77 78 78 78 78
-1 -1 -1 -1 -1 -1 63 63 63 63 63 63 63 63 63 63 63 63 63 63 63 63 63 63 63 63 64 64 64 64 64 65 66 67 68 67 66 65 64 64 64 64 64 64 64 64 64 64 64 64 64 63 63 63 63 63 63 -1 -1 -1 -1 -1 -1 -1 -1 -1 -1 -1 -1 -1 -1 -1 -1 -1 -1 -1 -1 -1 -1 -1 -1 -1 -1 -1 -1 -1 -1 -1 -1 -1 -1 -1 -1 -1 -1 -1 63 63 64 64 64 65 66 66 66 67 67 67 67 67 68 68 68 68 69 69 69 69 70 70 69 69 69 69 69 69 69 68 68 68 68 68 67 67 67 67 67 66 66 66 66 66 66 66 65 65 65 65 65 65 64 64 64 64 64 64 64 64 64 65 66 67 68 68 68 68 68 68 69 69 69 68 66 65 63 63 63 63 -1 -1 -1 -1 -1 -1 -1 -1 -1 -1 63 63 63 63 63 63 63 64 64 65 65 66 66 67 67 68 69 70 70 72 72 72 72 72 72 72 72 71 70 69 68 66 64 64 -1 -1 -1 -1 -1 -1 -1 -1 -1 -1 -1 -1 -1 -1 -1 -1 -1 -1 -1 63 64 66 68 70 73 74 75 76 77 77 77 77 78 78
-1 -1 -1 -1 -1 -1 -1 63 63 63 63 63 63 63 63 63 63 63 63 63 63 63 63 63 63 64 64 64 64 64 64 65 66 67 68 67 66 65 64 64 64 64 64 64 64 64 64 64 64 63 63 63 63 63 63 63 -1 -1 -1 -1 -1 -1 -1 -1 -1 -1 -1 -1 -1 -1 -1 -1 -1 -1 -1 -1 -1 -1 -1 -1 -1 -1 -1 -1 -1 -1 -1 -1 -1 -1 -1 -1 -1 -1 63 63 63 64 64 64 65 66 66 66 67 67 67 67 67 67 68 68 68 69 69 69 69 69 70 70 70 70 70 69 69 69 69 69 68 68 68 68 68 67 67 67 67 67 67 66 66 66 66 66 65 65 65 65 65 65 64 64 64 64 64 64 64 64 64 65 66 67 68 68 68 67 67 68 69 69 69 67 65 63 -1 -1 -1 -1 -1 -1 -1 -1 -1 -1 -1 -1 -1 -1 -1 -1 63 63 63 63 63 64 64 65 65 66 66 67 67 68 69 70 70 72 72 72 72 72 72 72 71 71 70 69 69 66 64 -1 -1 -1 -1 -1 -1 -1 -1 -1 -1 -1 -1 -1 -1 -1 -1 -1 -1 -1 -1 63 64 66 68 71 77 77 77 77 76 77 77 77 77 78
-1 -1 -1 -1 -1 -1 -1 63 63 63 63 63 63 63 63 63 63 63 63 63 63 63 63 63 63 63 64 64 64 64 64 65 65 66 67 66 65 64 64 64 64 64 64 64 64 64 64 64 63 63 63 63 63 63 63 -1 -1 -1 -1 -1 -1 -1 -1 -1 -1 -1 -1 -1 -1 -1 -1 -1 -1 -1 -1 -1 -1 -1 -1 -1 -1 -1 -1 -1 -1 -1 -1 -1 -1 -1 -1 -1 -1 63 63 63 64 64 64 65 65 66 66 67 67 67 67 67 67 68 68 68 68 69 69 69 69 70 70 70 70 70 70 69 69 69 69 69 69 68 68 68 68 68 67 67 67 67 67 67 66 66 66 66 66 65 65 65 65 65 64 64 64 64 64 64 64 64 64 64 65 66 67 66 66 66 66 66 67 67 67 66 64 63 -1 -1 -1 -1 -1 -1 -1 -1 -1 -1 -1 -1 -1 -1 -1 -1 -1 -1 -1 -1 63 63 63 64 64 65 65 66 66 67 69 70 72 72 72 72 72 72 72 71 71 70 69 68 68 66 64 -1 -1 -1 -1 -1 -1 -1 -1 -1 -1 -1 -1 -1 -1 -1 -1 -1 -1 -1 -1 63 64 66 69 72 77 77 77 77 77 77 77 77 77 78
-1 -1 -1 -1 -1 -1 63 63 63 63 63 63 63 63 63 63 63 63 63 63 63 63 63 63 63 63 63 64 64 64 64 64 64 65 65 65 64 64 64 64 64 64 64 64 64 64 64 63 63 63 63 63 63 -1 -1 -1 -1 -1 -1 -1 -1 -1 -1 -1 -1 -1 -1 -1 -1 -1 -1 -1 -1 -1 -1 -1 -1 -1 -1 -1 -1 -1 -1 -1 -1 -1 -1 -1 -1 -1 -1 -1 63 63 63 64 64 64 65 65 66 66 66 67 67 67 67 67 68 68 68 68 69 69 69 69 70 70 70 70 70 70 70 70 69 69 69 69 69 69 68 68 68 68 68 67 67 67 67 67 67 66 66 66 66 66 65 65 65 65 65 64 64 64 64 64 64 64 64 64 64 65 65 65 65 65 64 65 65 65 66 64 64 63 -1 -1 -1 -1 -1 -1 -1 -1 -1 -1 -1 -1 -1 -1 -1 -1 -1 -1 -1 -1 -1 -1 63 63 64 64 65 65 66 67 68 70 72 72 72 72 72 72 71 71 71 70 69 68 67 65 63 -1 -1 -1 -1 -1 -1 -1 -1 -1 -1 -1 -1 -1 -1 -1 -1 -1 -1 -1 -1 63 64 66 69 72 78 77 77 77 77 77 77 77 77 78
-1 -1 -1 -1 -1 -1 63 63 63 63 63 63 63 63 63 63 63 63 63 63 63 63 63 63 63 63 63 64 64 64 64 64 64 64 64 64 64 64 64 64 64 64 64 64 64 63 63 63 63 63 63 63 -1 -1 -1 -1 -1 -1 -1 -1 -1 -1 -1 -1 -1 -1 -1 -1 -1 -1 -1 -1 -1 -1 -1 -1 -1 -1 -1 -1 -1 -1 -1 -1 -1 -1 -1 -1 -1 -1 -1 63 63 63 64 64 64 65 65 66 66 66 66 67 67 67 67 68 68 68 68 68 69 69 69 69 70 70 70 70 70 70 70 70 69 69 69 69 69 69 69 68 68 68 68 68 68 67 67 67 67 67 66 66 66 66 65 65 65 65 65 65 64 64 64 64 64 64 64 64 64 64 64 64 64 64 64 64 64 64 64 63 63 63 -1 -1 -1 -1 -1 -1 -1 -1 -1 -1 -1 -1 -1 -1 -1 -1 -1 -1 -1 -1 -1 -1 -1 63 63 63 64 64 65 66 68 70 72 72 72 72 72 72 71 71 71 69 68 67 67 64 63 -1 -1 -1 -1 -1 -1 -1 -1 -1 -1 -1 -1 -1 -1 -1 -1 -1 -1 -1 -1 -1 64 67 70 73 78 77 77 77 77 77 77 77 77 78
63 -1 -1 -1 -1 -1 63 63 63 63 63 63 63 63 63 63 63 63 63 63 63 63 63 63 63 63 63 63 63 63 63 63 63 63 63 64 64 64 64 64 64 64 64 64 63 63 63 63 63 63 -1 -1 -1 -1 -1 -1 -1 -1 -1 -1 -1 -1 -1 -1 -1 -1 -1 -1 -1 -1 -1 -1 -1 -1 -1 -1 -1 -1 -1 -1 -1 -1 -1 -1 -1 -1 -1 -1 63 63 63 63 63 64 64 64 65 65 66 66 66 67 67 67 67 67 67 68 68 68 68 69 69 69 69 70 70 70 70 70 70 70 70 70 70 70 69 69 69 69 69 69 69 68 68 68 68 68 68 67 67 67 66 66 66 66 66 65 65 65 65 65 64 64 64 64 64 64 64 64 64 63 63 63 64 64 63 63 63 63 63 63 -1 -1 -1 -1 -1 -1 -1 -1 -1 -1 -1 -1 -1 -1 -1 -1 -1 -1 -1 -1 -1 -1 -1 -1 -1 -1 -1 63 63 64 64 66 67 69 72 72 72 72 72 71 71 71 71 69 67 67 67 63 -1 -1 -1 -1 -1 -1 -1 -1 -1 -1 -1 -1 -1 -1 -1 -1 -1 -1 -1 -1 -1 -1 64 67 71 74 78 78 77 77 77 77 77 77 77 78
63 63 63 63 63 63 63 63 63 63 63 63 63 63 63 63 63 63 63 63 63 63 63 63 63 63 63 63 63 63 63 63 63 63 63 64 64 64 64 64 64 64 64 63 63 63 63 63 63 -1 -1 -1 -1 -1 -1 -1 -1 -1 -1 -1 -1 -1 -1 -1 -1 -1 -1 -1 -1 -1 -1 -1 -1 -1 -1 -1 -1 -1 -1 -1 -1 -1 -1 -1 -1 -1 63 63 63 63 63 64 64 64 64 63 63 66 66 66 66 67 67 67 67 67 67 68 68 68 68 69 69 69 69 70 70 70 70 70 70 70 70 70 70 70 69 69 69 69 69 69 69 68 68 68 68 68 68 67 67 67 66 66 66 66 66 65 65 65 65 65 64 64 64 64 64 64 64 64 63 63 63 63 63 63 63 63 63 63 63 63 -1 -1 -1 -1 -1 -1 -1 -1 -1 -1 -1 -1 -1 -1 -1 -1 -1 -1 -1 -1 -1 -1 -1 -1 -1 -1 63 63 64 64 65 66 68 70 72 72 72 72 72 71 71 71 71 69 68 66 65 63 -1 -1 -1 -1 -1 -1 -1 -1 -1 -1 -1 -1 -1 -1 -1 -1 -1 -1 -1 -1 -1 -1 63 64 68 71 75 74 72 72 72 72 72 72 71 72
63 63 63 63 63 63 63 63 63 63 63 63 63 63 63 63 63 63 63 63 63 63 63 63 63 63 63 63 63 63 63 63 63 63 63 63 64 64 64 64 64 64 63 63 63 63 63 63 -1 -1 -1 -1 -1 -1 -1 -1 -1 -1 -1 -1 -1 -1 -1 -1 -1 -1 -1 -1 -1 -1 -1 -1 -1 -1 63 63 63 63 63 63 63 63 63 63 63 63 63 63 63 64 62 62 63 64 63 63 63 63 66 67 67 67 67 67 67 67 67 68 68 68 68 68 69 69 69 70 70 70 70 70 70 70 70 70 70 70 69 69 69 69 69 69 69 68 68 68 68 68 68 67 67 67 66 66 66 66 66 65 65 65 65 64 64 64 64 64 64 64 64 64 63 63 63 63 63 63 63 63 63 63 63 63 -1 -1 -1 -1 -1 -1 -1 -1 -1 -1 -1 -1 -1 -1 -1 -1 -1 -1 -1 -1 -1 -1 -1 -1 -1 63 64 64 65 65 66 67 68 70 72 72 72 72 72 71 71 71 71 69 68 66 65 63 -1 -1 -1 -1 -1 -1 -1 -1 -1 -1 -1 -1 -1 -1 -1 -1 -1 -1 -1 -1 -1 -1 -1 63 64 67 70 70 70 69 69 69 69 69 69 70
63 63 63 63 63 63 63 63 63 63 63 63 63 63 63 63 63 63 63 63 63 63 63 63 63 63 63 63 63 63 63 63 63 63 63 63 64 64 64 64 64 63 63 63 63 63 63 -1 -1 -1 -1 -1 -1 -1 -1 -1 -1 -1 -1 -1 -1 -1 -1 -1 -1 -1 -1 -1 -1 -1 -1 63 63 63 63 63 63 63 63 63 63 63 63 63 63 63 64 64 64 64 62 62 63 63 63 63 63 63 67 67 67 67 67 67 67 67 68 68 68 68 68 68 68 69 69 70 70 70 70 70 70 70 70 70 70 69 69 69 69 69 69 69 69 68 68 68 68 68 68 67 67 67 66 66 66 66 66 65 65 65 64 64 64 64 64 64 64 64 64 64 63 63 63 63 63 63 63 63 63 63 63 63 -1 -1 -1 -1 -1 -1 -1 -1 -1 -1 -1 -1 -1 -1 -1 -1 -1 -1 -1 -1 -1 -1 -1 -1 63 64 65 65 66 66 67 68 69 70 72 72 72 72 72 72 71 71 71 70 68 67 65 63 -1 -1 -1 -1 -1 -1 -1 -1 -1 -1 -1 -1 -1 -1 -1 -1 -1 -1 -1 -1 -1 -1 -1 -1 63 64 66 66 66 67 67 67 67 67 66 67
63 64 64 64 63 63 63 63 63 63 63 63 63 63 63 63 63 63 63 63 63 63 63 63 63 63 63 63 63 63 63 63 63 63 63 63 63 64 64 64 63 63 63 63 63 63 -1 -1 -1 -1 -1 -1 -1 -1 -1 -1 -1 -1 -1 -1 -1 -1 -1 -1 -1 -1 -1 -1 -1 63 63 63 63 63 63 63 63 64 64 64 64 64 64 64 64 64 64 63 62 62 62 62 66 66 63 63 63 63 63 67 67 67 67 67 67 67 68 68 68 68 68 68 69 69 69 69 70 70 70 70 70 70 70 70 70 69 69 69 69 69 69 69 68 68 68 68 68 68 68 67 67 67 66 66 66 66 66 65 65 65 64 64 64 64 64 64 64 64 64 64 63 63 63 63 63 63 63 63 63 63 63 63 -1 -1 -1 -1 -1 -1 -1 -1 -1 -1 -1 -1 -1 -1 -1 -1 -1 -1 -1 -1 -1 -1 -1 -1 63 65 67 67 67 67 68 69 70 71 72 72 72 72 72 72 71 71 71 70 69 67 65 63 -1 -1 -1 -1 -1 -1 -1 -1 -1 -1 -1 -1 -1 -1 -1 -1 -1 -1 -1 -1 -1 -1 -1 -1 -1 -1 63 63 64 64 64 64 64 64 64 67
64 64 64 63 63 63 63 63 63 63 63 63 63 63 63 63 63 63 63 63 63 63 63 63 63 63 63 63 63 63 63 63 63 63 63 63 63 64 64 63 63 63 63 63 63 63 -1 -1 -1 -1 -1 -1 -1 -1 -1 -1 -1 -1 -1 -1 -1 -1 -1 -1 -1 -1 -1 -1 63 63 63 63 63 63 63 64 64 64 64 64 64 63 63 63 63 63 62 62 62 62 62 66 66 66 67 63 63 63 63 64 67 67 67 67 67 68 67 67 68 68 68 69 69 69 69 69 69 70 70 70 70 70 70 69 69 69 69 69 69 69 68 68 68 68 68 68 68 68 68 67 67 67 66 66 66 66 66 65 65 65 64 64 64 64 64 64 64 64 64 63 63 63 63 63 63 63 63 63 63 63 63 -1 -1 -1 -1 -1 -1 -1 -1 -1 -1 -1 -1 -1 -1 -1 -1 -1 -1 -1 -1 -1 -1 -1 -1 -1 63 64 65 65 66 66 66 67 69 70 72 72 72 72 72 71 70 70 69 67 65 64 -1 -1 -1 -1 -1 -1 -1 -1 -1 -1 -1 -1 -1 -1 -1 -1 -1 -1 -1 -1 -1 -1 -1 -1 -1 -1 -1 -1 -1 -1 -1 63 63 63 63 63 63 64
64 64 64 63 63 63 63 63 63 63 63 63 63 63 63 63 63 63 63 63 63 63 63 63 63 63 63 63 63 63 63 63 63 63 63 63 63 63 64 63 63 63 63 63 63 -1 -1 -1 -1 -1 -1 -1 -1 -1 -1 -1 -1 -1 -1 -1 -1 -1 -1 -1 -1 -1 -1 63 63 63 63 63 63 64 64 64 64 64 64 64 64 63 63 63 63 62 62 62 62 62 66 66 66 67 67 67 63 63 64 64 67 67 67 67 68 67 67 67 68 68 68 69 69 69 69 69 69 69 70 70 69 69 69 69 69 69 69 69 69 69 68 68 68 68 68 68 68 67 67 67 67 67 66 66 66 66 65 65 65 64 64 64 64 64 64 64 64 64 64 63 63 63 63 63 63 63 63 63 63 63 -1 -1 -1 -1 -1 -1 -1 -1 -1 -1 -1 -1 -1 -1 -1 -1 -1 -1 -1 -1 -1 -1 -1 -1 -1 -1 -1 63 63 64 64 64 65 66 68 70 72 72 72 72 72 71 69 67 64 64 63 -1 -1 -1 -1 -1 -1 -1 -1 -1 -1 -1 -1 -1 -1 -1 -1 -1 -1 -1 -1 -1 -1 -1 -1 -1 -1 -1 -1 -1 -1 -1 -1 -1 -1 -1 -1 -1 -1 -1
64 64 63 63 63 63 63 63 63 63 63 63 63 63 63 63 63 63 63 63 63 63 63 63 63 63 63 63 63 63 63 63 63 63 63 63 63 63 64 63 63 63 63 63 63 -1 -1 -1 -1 -1 -1 -1 -1 -1 -1 -1 -1 -1 -1 -1 -1 -1 -1 -1 -1 -1 63 63 63 63 63 64 64 64 64 64 64 64 64 64 64 63 63 63 63 63 62 62 62 66 66 66 67 67 67 67 64 64 64 64 65 67 67 67 67 67 67 67 68 68 68 69 69 69 69 69 69 69 69 69 69 69 69 69 69 69 69 69 69 68 68 68 68 68 68 68 67 67 67 67 67 67 67 66 66 66 65 65 65 64 64 64 64 64 64 64 64 64 63 63 63 63 63 63 63 63 63 63 63 -1 -1 -1 -1 -1 -1 -1 -1 -1 -1 -1 -1 -1 -1 -1 -1 -1 -1 -1 -1 -1 -1 -1 -1 -1 -1 -1 -1 -1 -1 -1 63 63 64 65 65 69 72 72 72 72 72 70 67 64 -1 -1 -1 -1 -1 -1 -1 -1 -1 -1 -1 -1 -1 -1 -1 -1 -1 -1 -1 -1 -1 -1 -1 -1 -1 -1 -1 -1 -1 -1 -1 -1 -1 -1 -1 -1 -1 -1 -1 -1 -1 -1
66 64 63 63 63 63 63 63 63 63 63 63 63 63 63 63 63 63 63 63 63 63 63 63 63 63 63 63 63 63 63 63 63 63 63 63 63 63 63 63 63 63 63 63 -1 -1 -1 -1 -1 -1 -1 -1 -1 -1 -1 -1 -1 -1 -1 -1 -1 -1 -1 -1 -1 63 63 63 63 63 64 64 64 64 64 64 64 64 64 64 64 65 64 64 63 63 66 66 66 66 66 67 67 67 67 67 68 64 65 65 65 66 67 67 67 67 67 68 68 68 68 68 68 69 69 69 69 69 69 69 69 69 69 69 69 69 69 69 68 68 68 68 68 68 67 67 67 67 67 67 67 67 67 66 66 66 65 65 65 64 64 64 64 64 64 64 64 63 63 63 63 63 63 63 63 63 63 63 63 -1 -1 -1 -1 -1 -1 -1 -1 -1 -1 -1 -1 -1 -1 -1 -1 -1 -1 -1 -1 -1 -1 -1 -1 -1 -1 -1 -1 -1 -1 -1 -1 -1 63 65 65 68 71 71 72 72 71 69 64 -1 -1 -1 -1 -1 -1 -1 -1 -1 -1 -1 -1 -1 -1 -1 -1 -1 -1 -1 -1 -1 -1 -1 -1 -1 -1 -1 -1 -1 -1 -1 -1 -1 -1 -1 -1 -1 -1 -1 -1 -1 -1 -1
67 64 64 64 63 63 63 63 63 63 63 63 63 63 63 63 63 63 63 63 63 63 59 59 60 63 63 63 63 63 63 63 63 63 63 63 63 63 63 63 63 63 63 63 -1 -1 -1 -1 -1 -1 -1 -1 -1 -1 -1 -1 -1 -1 -1 -1 -1 -1 -1 -1 -1 63 63 63 63 64 64 64 64 64 64 64 64 64 64 64 64 65 65 65 65 66 66 66 66 66 67 67 67 67 67 68 68 66 65 65 66 66 67 67 67 67 68 68 68 68 68 68 68 68 69 69 69 69 69 69 69 69 69 69 69 69 69 68 68 68 68 68 68 68 67 67 67 67 67 67 67 66 66 66 66 66 65 65 65 64 64 64 64 64 64 64 64 64 63 63 63 63 63 63 63 63 63 63 -1 -1 -1 -1 -1 -1 -1 -1 -1 -1 -1 -1 -1 -1 -1 -1 -1 -1 -1 -1 -1 -1 -1 -1 -1 -1 -1 -1 -1 -1 -1 -1 -1 -1 -1 63 64 66 67 67 67 67 67 64 -1 -1 -1 -1 -1 -1 -1 -1 -1 -1 -1 -1 -1 -1 -1 -1 -1 -1 -1 -1 -1 -1 -1 -1 -1 -1 -1 -1 -1 -1 -1 -1 -1 -1 -1 -1 -1 -1 -1 -1 -1 -1 -1 -1
68 66 64 64 64 63 63 63 63 63 63 63 63 63 63 63 63 63 63 63 63 58 58 59 60 61 62 62 63 63 63 63 63 63 63 63 63 63 63 63 63 63 63 -1 -1 -1 -1 -1 -1 -1 -1 -1 -1 -1 -1 -1 -1 -1 -1 -1 -1 -1 -1 -1 -1 63 63 63 64 64 64 64 64 64 64 64 64 64 64 64 64 65 65 65 65 66 66 66 66 67 67 67 67 67 68 68 68 68 66 66 66 66 67 67 68 68 68 68 68 68 68 68 68 68 68 69 69 69 69 69 69 69 69 69 69 69 68 68 68 68 68 68 68 67 67 67 67 67 66 66 66 66 66 66 66 65 65 65 65 64 64 64 64 64 64 64 64 64 63 63 63 63 63 63 63 63 63 -1 -1 -1 -1 -1 -1 -1 -1 -1 -1 -1 -1 -1 -1 -1 -1 -1 -1 -1 -1 -1 -1 -1 -1 -1 -1 -1 -1 -1 -1 -1 -1 -1 -1 -1 -1 -1 -1 63 64 64 63 63 63 -1 -1 -1 -1 -1 -1 -1 -1 -1 -1 -1 -1 -1 -1 -1 -1 -1 -1 -1 -1 -1 -1 -1 -1 -1 -1 -1 -1 -1 -1 -1 -1 -1 -1 -1 -1 -1 -1 -1 -1 -1 -1 -1 -1 -1
68 67 66 65 64 63 63 63 63 63 63 63 63 63 63 63 63 63 63 63 63 63 59 59 60 61 62 62 63 63 63 63 63 63 63 63 63 63 63 63 63 63 63 -1 -1 -1 -1 -1 -1 -1 -1 -1 -1 -1 -1 -1 -1 -1 -1 -1 -1 -1 -1 -1 63 63 63 63 64 64 64 64 64 64 64 64 64 64 64 64 64 65 65 65 65 66 66 66 66 67 67 67 67 67 68 68 68 68 68 68 66 66 68 68 68 68 68 68 68 68 68 68 68 68 68 68 68 69 69 69 69 69 68 68 68 68 68 68 68 68 68 68 67 67 67 67 67 67 66 66 66 66 66 66 66 65 65 65 65 64 64 64 64 64 64 64 64 64 63 63 63 63 63 63 63 63 -1 -1 -1 -1 -1 -1 -1 -1 -1 -1 -1 -1 -1 -1 -1 -1 -1 -1 -1 -1 -1 -1 -1 -1 -1 -1 -1 -1 -1 -1 -1 -1 -1 -1 -1 -1 -1 -1 -1 -1 -1 -1 -1 -1 -1 -1 -1 -1 -1 -1 -1 -1 -1 -1 -1 -1 -1 -1 -1 -1 -1 -1 -1 -1 -1 -1 -1 -1 -1 -1 -1 -1 -1 -1 -1 -1 -1 -1 -1 -1 -1 -1 -1 -1 -1 -1 -1 -1 -1 -1
68 68 68 66 64 64 63 63 63 63 63 63 63 63 63 63 63 63 63 63 63 63 60 60 61 61 62 63 63 63 63 63 63 63 63 63 63 63 63 63 63 63 63 -1 -1 -1 -1 -1 -1 -1 -1 -1 -1 -1 -1 -1 -1 -1 -1 -1 -1 -1 -1 -1 63 63 64 64 64 64 64 64 64 64 64 64 64 64 64 64 64 65 65 65 65 66 66 66 66 67 67 67 67 68 68 68 68 68 68 69 67 69 69 69 69 69 68 68 68 68 68 68 68 68 68 68 68 68 68 68 68 68 68 68 68 68 68 68 68 68 68 67 67 67 67 67 67 66 66 66 66 66 66 66 65 65 65 65 65 65 64 64 64 64 64 64 64 64 63 63 63 63 63 63 63 63 -1 -1 -1 -1 -1 -1 -1 -1 -1 -1 -1 -1 -1 -1 -1 -1 -1 -1 -1 -1 -1 -1 -1 -1 -1 -1 -1 -1 -1 -1 -1 -1 -1 -1 -1 -1 -1 -1 -1 -1 -1 -1 -1 -1 -1 -1 -1 -1 -1 -1 -1 -1 -1 -1 -1 -1 -1 -1 -1 -1 -1 -1 -1 -1 -1 -1 -1 -1 -1 -1 -1 -1 -1 -1 -1 -1 -1 -1 -1 -1 -1 -1 -1 -1 -1 -1 -1 -1 -1 -1
68 68 68 67 66 64 64 64 64 64 64 64 64 64 64 64 64 64 64 64 64 64 64 63 63 63 63 63 63 63 63 63 63 63 63 63 63 63 63 63 63 63 -1 -1 -1 -1 -1 -1 -1 -1 -1 -1 -1 -1 -1 -1 -1 -1 -1 -1 -1 -1 -1 -1 63 63 64 64 64 64 64 64 64 64 64 64 64 64 64 64 64 65 65 65 65 66 66 66 66 67 67 67 67 68 68 68 68 69 69 69 69 69 69 69 69 69 69 68 68 68 68 68 68 68 68 68 68 68 68 68 68 68 68 68 68 68 68 68 68 68 68 67 67 67 67 67 66 66 66 66 66 66 66 66 65 65 65 65 65 65 65 64 64 64 64 64 64 64 64 63 63 63 63 63 63 63 63 -1 -1 -1 -1 -1 -1 -1 -1 -1 -1 -1 -1 -1 -1 -1 -1 -1 -1 -1 -1 -1 -1 -1 -1 -1 -1 -1 -1 -1 -1 -1 -1 -1 -1 -1 -1 -1 -1 -1 -1 -1 -1 -1 -1 -1 -1 -1 -1 -1 -1 -1 -1 -1 -1 -1 -1 -1 -1 -1 -1 -1 -1 -1 -1 -1 -1 -1 -1 -1 -1 -1 -1 -1 -1 -1 -1 -1 -1 -1 -1 -1 -1 -1 -1 -1 -1 -1 -1 -1
68 68 68 67 66 65 64 64 65 65 65 65 65 65 65 65 65 66 66 65 65 65 64 64 64 63 63 63 63 63 63 63 63 63 63 63 63 63 63 63 63 63 -1 -1 -1 -1 -1 -1 -1 -1 -1 -1 -1 -1 -1 -1 -1 -1 -1 -1 -1 -1 -1 -1 63 63 64 64 64 64 64 64 64 64 64 64 64 64 64 64 64 65 65 -1 -1 66 66 66 66 67 67 67 68 68 68 68 69 69 69 69 69 69 69 69 69 69 69 69 68 68 68 68 68 68 68 68 68 68 68 68 68 68 68 68 68 68 68 68 67 68 68 67 67 67 67 67 66 66 66 66 66 66 66 66 65 65 65 65 65 65 65 65 64 64 64 64 64 64 64 63 63 63 63 63 63 63 63 63 -1 -1 -1 -1 -1 -1 -1 -1 -1 -1 -1 -1 -1 -1 -1 -1 -1 -1 -1 -1 -1 -1 -1 -1 -1 -1 -1 -1 -1 -1 -1 -1 -1 -1 -1 -1 -1 -1 -1 -1 -1 -1 -1 -1 -1 -1 -1 -1 -1 -1 -1 -1 -1 -1 -1 -1 -1 -1 -1 -1 -1 -1 -1 -1 -1 -1 -1 -1 -1 -1 -1 -1 -1 -1 -1 -1 -1 -1 -1 -1 -1 -1 -1 -1 -1 -1 -1 -1
69 69 69 68 67 66 65 66 66 67 67 67 67 67 67 67 67 67 67 67 66 66 65 65 64 64 63 63 63 63 63 63 64 64 64 64 64 64 63 63 63 63 -1 -1 -1 -1 -1 -1 -1 -1 -1 -1 -1 -1 -1 -1 -1 -1 -1 -1 -1 -1 -1 63 63 63 64 64 64 64 64 64 64 64 64 64 64 64 64 64 65 65 -1 -1 66 66 66 66 67 67 67 67 68 68 68 69 69 69 69 69 69 70 70 69 69 69 69 69 69 68 68 68 68 68 68 68 68 68 68 68 68 68 68 68 67 67 67 67 67 67 67 67 67 67 67 67 66 66 66 66 66 66 66 66 65 65 65 65 65 65 65 65 64 64 64 64 64 64 64 63 63 63 63 63 63 63 63 63 -1 -1 -1 -1 -1 -1 -1 -1 -1 -1 -1 -1 -1 -1 -1 -1 -1 -1 -1 -1 -1 -1 -1 -1 -1 -1 -1 -1 -1 -1 -1 -1 -1 -1 -1 -1 -1 -1 -1 -1 -1 -1 -1 -1 -1 -1 -1 -1 -1 -1 -1 -1 -1 -1 -1 -1 -1 -1 -1 -1 -1 -1 -1 -1 -1 -1 -1 -1 -1 -1 -1 -1 -1 -1 -1 -1 -1 -1 -1 -1 -1 -1 -1 -1 -1 -1 -1 -1
69 69 69 68 68 67 66 67 67 68 68 68 68 68 68 68 68 69 69 68 67 66 66 65 64 64 63 63 63 63 64 64 64 64 64 64 64 64 63 63 63 -1 -1 -1 -1 -1 -1 -1 -1 -1 -1 -1 -1 -1 -1 -1 -1 -1 -1 -1 -1 -1 -1 63 63 63 64 64 64 64 64 64 64 64 64 64 64 64 64 64 65 -1 -1 -1 66 66 66 66 67 67 67 68 68 68 68 69 69 69 70 70 70 70 70 70 70 69 69 69 69 68 68 68 68 68 68 68 68 68 68 67 67 67 67 67 67 67 67 67 67 67 67 67 67 67 67 66 66 66 66 66 66 66 66 65 65 65 65 65 65 65 65 65 64 64 64 64 64 64 64 63 63 63 63 63 63 63 63 63 63 -1 -1 -1 -1 -1 -1 -1 -1 -1 -1 -1 -1 -1 -1 -1 -1 -1 -1 -1 -1 -1 -1 -1 -1 -1 -1 -1 -1 -1 -1 -1 -1 -1 -1 -1 -1 -1 -1 -1 -1 -1 -1 -1 -1 -1 -1 -1 -1 -1 -1 -1 -1 -1 -1 -1 -1 -1 -1 -1 -1 -1 -1 -1 -1 -1 -1 -1 -1 -1 -1 -1 -1 -1 -1 -1 -1 -1 -1 -1 -1 -1 -1 -1 -1 -1 -1 -1
69 69 69 68 68 67 67 67 68 68 69 69 69 69 69 69 69 69 69 68 67 66 66 65 64 64 63 63 63 64 64 64 64 64 64 64 64 64 64 63 63 -1 -1 -1 -1 -1 -1 -1 -1 -1 -1 -1 -1 -1 -1 -1 -1 -1 -1 -1 -1 -1 -1 63 63 63 64 64 64 64 64 64 64 64 64 64 64 64 64 65 65 -1 -1 66 -1 -1 -1 67 67 67 67 68 68 68 69 69 69 70 70 70 70 70 70 70 70 69 69 69 69 68 68 68 68 68 68 68 68 67 67 67 67 67 67 67 67 67 67 67 67 67 67 67 67 67 67 66 66 66 66 66 66 66 66 65 65 65 65 65 65 65 65 65 64 64 64 64 64 64 64 64 63 63 63 63 64 64 64 63 63 -1 -1 -1 -1 -1 -1 -1 -1 -1 -1 -1 -1 -1 -1 -1 -1 -1 -1 -1 -1 -1 -1 -1 -1 -1 -1 -1 -1 -1 -1 -1 -1 -1 -1 -1 -1 -1 -1 -1 -1 -1 -1 -1 -1 -1 -1 -1 -1 -1 -1 -1 -1 -1 -1 -1 -1 -1 -1 -1 -1 -1 -1 -1 -1 -1 -1 -1 -1 -1 -1 -1 -1 -1 -1 -1 -1 -1 -1 -1 -1 -1 -1 -1 -1 -1 -1 -1
69 69 69 68 68 68 67 68 68 69 69 69 69 69 69 69 69 69 69 68 68 66 65 65 64 64 63 63 64 64 64 64 64 64 64 64 64 64 64 63 63 -1 -1 -1 -1 -1 -1 -1 -1 -1 -1 -1 -1 -1 -1 -1 -1 -1 -1 -1 -1 -1 -1 63 63 63 64 64 64 64 64 64 64 64 64 64 64 65 65 65 65 -1 66 66 -1 -1 67 67 67 67 68 68 68 69 69 69 69 70 70 70 70 70 70 70 70 70 69 69 69 69 68 68 68 68 68 68 68 67 67 67 67 67 67 67 67 67 67 67 67 67 67 67 67 66 66 66 66 66 66 66 66 66 66 65 65 65 65 65 65 65 65 65 64 64 64 64 64 64 64 64 64 63 63 63 64 64 64 64 63 -1 -1 -1 -1 -1 -1 -1 -1 -1 -1 -1 -1 -1 -1 -1 -1 -1 -1 -1 -1 -1 -1 -1 -1 -1 -1 -1 -1 -1 -1 -1 -1 -1 -1 -1 -1 -1 -1 -1 -1 -1 -1 -1 -1 -1 -1 -1 -1 -1 -1 -1 -1 -1 -1 -1 -1 -1 -1 -1 -1 -1 -1 -1 -1 -1 -1 -1 -1 -1 -1 -1 -1 -1 -1 -1 -1 -1 -1 -1 -1 -1 -1 -1 -1 -1 -1 -1
69 69 69 68 68 68 67 68 69 69 69 69 69 69 69 69 69 70 70 69 68 66 65 64 64 64 64 64 64 64 64 64 64 64 64 64 64 64 64 63 63 -1 -1 -1 -1 -1 -1 -1 -1 -1 -1 -1 -1 -1 -1 -1 -1 -1 -1 -1 -1 -1 -1 63 63 63 64 64 64 64 64 64 64 64 64 65 65 65 65 65 66 66 66 66 -1 67 67 67 67 68 68 68 68 69 69 69 69 70 70 70 70 70 70 70 70 70 70 69 69 69 68 68 68 68 68 68 67 67 67 67 67 67 66 66 66 66 66 66 66 67 67 67 66 66 66 66 66 66 65 65 65 65 66 65 65 65 65 65 65 65 65 65 64 64 64 64 64 64 64 64 64 63 63 64 64 65 65 64 63 -1 -1 -1 -1 -1 -1 -1 -1 -1 -1 -1 -1 -1 -1 -1 -1 -1 -1 -1 -1 -1 -1 -1 -1 -1 -1 -1 -1 -1 -1 -1 -1 -1 -1 -1 -1 -1 -1 -1 -1 -1 -1 -1 -1 -1 -1 -1 -1 -1 -1 -1 -1 -1 -1 -1 -1 -1 -1 -1 -1 -1 -1 -1 -1 -1 -1 -1 -1 -1 -1 -1 -1 -1 -1 -1 -1 -1 -1 -1 -1 -1 -1 -1 -1 -1 -1 -1
69 69 69 69 68 68 68 68 69 69 70 70 70 69 69 70 70 70 70 69 68 66 64 64 64 64 64 64 64 64 64 64 64 64 64 64 64 64 64 63 63 -1 -1 -1 -1 -1 -1 -1 -1 -1 -1 -1 -1 -1 -1 -1 -1 -1 -1 -1 -1 -1 -1 63 63 63 64 64 64 64 64 64 64 64 65 65 65 66 66 66 66 66 66 66 67 67 67 67 68 68 68 68 68 69 69 69 70 70 70 70 70 70 71 70 70 70 70 69 69 69 69 68 68 68 68 67 67 67 67 67 67 66 66 66 66 63 66 66 66 66 66 66 66 66 66 66 66 65 65 65 65 65 65 65 65 65 65 65 65 65 65 64 64 64 64 64 64 64 64 64 64 63 63 64 64 65 65 64 63 -1 -1 -1 -1 -1 -1 -1 -1 -1 -1 -1 -1 -1 -1 -1 -1 -1 -1 -1 -1 -1 -1 -1 -1 -1 -1 -1 -1 -1 -1 -1 -1 -1 -1 -1 -1 -1 -1 -1 -1 -1 -1 -1 -1 -1 -1 -1 -1 -1 -1 -1 -1 -1 -1 -1 -1 -1 -1 -1 -1 -1 -1 -1 -1 -1 -1 -1 -1 -1 -1 -1 -1 -1 -1 -1 -1 -1 -1 -1 -1 -1 -1 -1 -1 -1 -1 -1
69 69 69 69 68 68 68 68 69 69 69 69 69 69 69 69 69 69 69 68 67 66 64 64 64 64 64 64 64 64 64 64 64 64 64 64 64 64 63 63 63 -1 -1 -1 -1 -1 -1 -1 -1 -1 -1 -1 -1 -1 -1 -1 -1 -1 -1 -1 -1 -1 63 63 63 63 64 64 64 64 64 64 64 64 65 65 65 65 66 66 66 66 66 66 67 67 67 67 67 68 68 68 69 69 69 69 70 70 70 70 70 70 71 70 70 70 70 69 69 69 69 68 68 68 68 67 67 67 67 67 66 66 66 66 66 63 63 66 66 66 66 66 66 66 66 66 66 65 65 65 65 65 65 65 65 65 65 65 65 65 65 65 64 64 64 64 64 64 64 64 64 64 64 64 65 66 67 65 64 63 -1 -1 -1 -1 -1 -1 -1 -1 -1 -1 -1 -1 -1 -1 -1 -1 -1 -1 -1 -1 -1 -1 -1 -1 -1 -1 -1 -1 -1 -1 -1 -1 -1 -1 -1 -1 -1 -1 -1 -1 -1 -1 -1 -1 -1 -1 -1 -1 -1 -1 -1 -1 -1 -1 -1 -1 -1 -1 -1 -1 -1 -1 -1 -1 -1 -1 -1 -1 -1 -1 -1 -1 -1 -1 -1 -1 -1 -1 -1 -1 -1 -1 -1 -1 -1 -1
69 69 69 69 69 68 68 68 68 68 68 68 69 69 69 68 68 68 68 67 66 65 64 64 64 64 64 64 64 64 64 64 64 64 64 64 64 64 63 63 63 -1 -1 -1 -1 -1 -1 -1 -1 -1 -1 -1 -1 -1 -1 -1 -1 -1 -1 -1 -1 -1 63 63 63 64 64 64 64 64 64 64 64 65 65 65 65 65 66 66 66 66 66 66 67 67 67 67 67 67 68 68 68 69 69 69 70 70 70 70 70 70 70 70 70 70 70 70 69 69 69 68 68 68 68 67 67 67 67 67 66 66 66 66 66 63 63 66 66 66 66 66 66 66 66 66 66 66 65 65 65 65 66 65 65 65 65 65 65 65 65 65 64 64 64 64 64 64 64 64 64 64 65 65 66 67 67 66 64 64 63 63 -1 -1 -1 -1 -1 -1 -1 -1 -1 -1 -1 -1 -1 -1 -1 -1 -1 -1 -1 -1 -1 -1 -1 -1 -1 -1 -1 -1 -1 -1 -1 -1 -1 -1 -1 -1 -1 -1 -1 -1 -1 -1 -1 -1 -1 -1 -1 -1 -1 -1 -1 -1 -1 -1 -1 -1 -1 -1 -1 -1 -1 -1 -1 -1 -1 -1 -1 -1 -1 -1 -1 -1 -1 -1 -1 -1 -1 -1 -1 -1 -1 -1 -1 -1
69 69 69 69 69 69 68 68 68 68 68 68 68 68 68 67 67 66 66 65 65 64 64 64 64 64 64 64 64 64 64 64 64 64 64 64 64 63 63 63 63 -1 -1 -1 -1 -1 -1 -1 -1 -1 -1 -1 -1 -1 -1 -1 -1 -1 -1 -1 -1 63 63 63 63 64 64 64 64 64 64 64 64 65 65 65 65 65 66 66 66 66 66 66 67 67 67 67 67 67 67 68 68 69 69 69 70 70 70 70 70 70 70 70 70 70 70 70 69 69 69 68 68 68 67 67 67 67 67 66 66 66 66 66 66 63 63 66 66 66 66 66 66 66 66 66 66 66 65 65 65 66 66 65 65 65 65 65 65 65 65 65 65 64 64 64 64 64 64 64 65 65 66 67 67 67 67 67 65 64 64 63 63 -1 -1 -1 -1 -1 -1 -1 -1 -1 -1 -1 -1 -1 -1 -1 -1 -1 -1 -1 -1 -1 -1 -1 -1 -1 -1 -1 -1 -1 -1 -1 -1 -1 -1 -1 -1 -1 -1 -1 -1 -1 -1 -1 -1 -1 -1 -1 -1 -1 -1 -1 -1 -1 -1 -1 -1 -1 -1 -1 -1 -1 -1 -1 -1 -1 -1 -1 -1 -1 -1 -1 -1 -1 -1 -1 -1 -1 -1 -1 -1 -1 -1 -1
69 69 69 69 69 69 69 68 68 67 67 67 67 67 67 66 65 64 64 64 64 64 64 64 64 64 64 64 64 64 64 64 64 64 64 64 64 63 63 63 63 -1 -1 -1 -1 -1 -1 -1 -1 -1 -1 -1 -1 -1 -1 -1 -1 -1 -1 -1 -1 63 63 63 64 64 64 64 64 64 64 64 65 65 65 65 65 65 66 66 66 66 67 67 67 67 67 67 67 67 67 68 68 69 69 70 70 70 70 70 70 70 70 70 70 70 70 70 69 69 69 68 68 68 67 67 67 67 67 66 66 66 66 66 66 66 66 66 66 66 66 66 66 66 66 66 66 66 66 66 66 66 66 65 65 65 65 65 65 65 65 65 65 64 64 64 64 64 64 65 65 67 68 68 68 68 68 67 67 66 65 63 63 -1 -1 -1 -1 -1 -1 -1 -1 -1 -1 -1 -1 -1 -1 -1 -1 -1 -1 -1 -1 -1 -1 -1 -1 -1 -1 -1 -1 -1 -1 -1 -1 -1 -1 -1 -1 -1 -1 -1 -1 -1 -1 -1 -1 -1 -1 -1 -1 -1 -1 -1 -1 -1 -1 -1 -1 -1 -1 -1 -1 -1 -1 -1 -1 -1 -1 -1 -1 -1 -1 -1 -1 -1 -1 -1 -1 -1 -1 -1 -1 -1 -1 -1
68 68 68 68 68 68 68 68 67 67 66 66 66 66 66 66 65 64 64 64 64 64 64 64 64 64 64 64 64 64 64 64 64 64 64 64 64 63 63 63 63 -1 -1 -1 -1 -1 -1 -1 -1 -1 -1 -1 -1 -1 -1 -1 -1 -1 -1 -1 63 63 63 64 64 64 64 64 65 65 65 65 65 65 65 65 65 66 66 66 66 66 67 67 67 67 67 67 67 67 67 68 68 69 69 70 70 70 70 70 70 70 70 70 70 70 70 70 69 69 69 69 68 68 68 67 67 67 67 66 66 66 66 66 66 66 66 66 66 66 66 66 66 66 66 66 66 66 66 66 66 66 66 66 65 65 65 65 65 65 65 65 65 65 65 65 65 65 65 66 67 68 69 68 68 68 68 68 67 67 67 64 64 63 -1 -1 -1 -1 -1 -1 -1 -1 -1 -1 -1 -1 -1 -1 -1 -1 -1 -1 -1 -1 -1 -1 -1 -1 -1 -1 -1 -1 -1 -1 -1 -1 -1 -1 -1 -1 -1 -1 -1 -1 -1 -1 -1 -1 -1 -1 -1 -1 -1 -1 -1 -1 -1 -1 -1 -1 -1 -1 -1 -1 -1 -1 -1 -1 -1 -1 -1 -1 -1 -1 -1 -1 -1 -1 -1 -1 -1 -1 -1 -1 -1 -1
68 68 68 68 68 67 67 67 67 66 66 66 66 66 65 65 65 64 64 64 64 64 64 64 64 64 64 64 64 64 64 64 64 64 64 64 64 63 63 63 -1 -1 -1 -1 -1 -1 -1 -1 -1 -1 -1 -1 -1 -1 -1 -1 -1 -1 -1 63 63 63 63 64 64 64 65 65 65 65 65 65 65 65 65 65 66 66 66 66 66 67 67 67 67 67 67 67 67 67 67 68 68 68 69 70 70 70 71 71 71 71 71 70 70 70 70 70 70 69 69 69 69 69 68 68 67 67 67 67 66 66 66 66 66 66 66 66 66 66 66 66 66 66 66 66 66 66 66 66 66 66 66 66 66 65 65 65 65 65 65 65 65 65 65 66 66 66 67 67 68 68 69 68 68 68 68 68 68 68 68 66 64 64 63 63 -1 -1 -1 -1 -1 -1 -1 -1 -1 -1 -1 -1 -1 -1 -1 -1 -1 -1 -1 -1 -1 -1 -1 -1 -1 -1 -1 -1 -1 -1 -1 -1 -1 -1 -1 -1 -1 -1 -1 -1 -1 -1 -1 -1 -1 -1 -1 -1 -1 -1 -1 -1 -1 -1 -1 -1 -1 -1 -1 -1 -1 -1 -1 -1 -1 -1 -1 -1 -1 -1 -1 -1 -1 -1 -1 -1 -1 -1 -1 -1
67 67 67 67 67 67 66 66 66 65 65 65 65 65 65 65 65 64 64 64 64 64 64 64 64 64 64 64 64 64 64 64 64 64 64 64 64 63 63 63 -1 -1 -1 -1 -1 -1 -1 -1 -1 -1 -1 -1 -1 -1 -1 -1 -1 -1 63 63 63 64 64 64 64 65 65 65 65 65 65 65 65 66 66 66 66 66 66 66 67 67 67 67 67 67 67 67 67 67 67 68 68 68 69 70 70 70 71 71 71 71 71 71 71 71 70 70 70 70 69 69 69 69 68 68 67 67 67 67 67 66 66 66 66 66 67 66 66 66 66 66 66 66 66 66 66 66 66 66 66 66 66 66 66 65 65 65 65 65 65 65 65 65 65 66 67 68 68 69 69 69 70 69 69 69 68 68 68 68 69 68 67 64 64 63 -1 -1 -1 -1 -1 -1 -1 -1 -1 -1 -1 -1 -1 -1 -1 -1 -1 -1 -1 -1 -1 -1 -1 -1 -1 -1 -1 -1 -1 -1 -1 -1 -1 -1 -1 -1 -1 -1 -1 -1 -1 -1 -1 -1 -1 -1 -1 -1 -1 -1 -1 -1 -1 -1 -1 -1 -1 -1 -1 -1 -1 -1 -1 -1 -1 -1 -1 -1 -1 -1 -1 -1 -1 -1 -1 -1 -1 -1 -1 -1
67 67 66 66 66 66 65 65 64 64 64 64 64 64 64 64 64 64 64 64 64 64 64 64 64 64 64 64 64 64 64 64 64 64 65 64 64 63 63 63 -1 -1 -1 -1 -1 -1 -1 -1 -1 -1 -1 -1 -1 -1 -1 -1 63 63 63 63 64 64 64 65 65 65 65 65 65 66 66 66 66 66 66 66 66 66 66 67 67 67 67 67 67 68 68 68 68 68 68 68 68 69 69 70 70 70 71 71 71 71 71 71 71 71 71 70 70 70 70 69 69 69 68 68 68 67 67 67 67 67 66 67 67 67 67 67 66 66 66 66 66 66 66 66 66 66 66 66 66 66 66 66 66 66 65 65 65 65 65 65 65 66 66 67 68 68 68 70 70 70 70 70 69 69 68 69 69 69 70 69 68 67 65 64 -1 -1 -1 -1 -1 -1 -1 -1 -1 -1 -1 -1 -1 -1 -1 -1 -1 -1 -1 -1 -1 -1 -1 -1 -1 -1 -1 -1 -1 -1 -1 -1 -1 -1 -1 -1 -1 -1 -1 -1 -1 -1 -1 -1 -1 -1 -1 -1 -1 -1 -1 -1 -1 -1 -1 -1 -1 -1 -1 -1 -1 -1 -1 -1 -1 -1 -1 -1 -1 -1 -1 -1 -1 -1 -1 -1 -1 -1 -1 -1
67 67 67 67 66 66 66 65 65 64 64 64 64 64 64 64 64 64 65 64 64 64 64 64 64 64 64 64 64 64 64 64 64 64 64 64 63 63 63 -1 -1 -1 -1 -1 -1 -1 -1 -1 -1 -1 -1 -1 -1 -1 -1 63 63 63 64 64 64 64 65 65 65 66 66 66 66 66 66 66 66 66 66 66 67 67 67 67 67 68 68 68 68 68 68 68 68 68 68 68 69 69 70 70 70 71 71 71 71 71 71 71 71 71 71 70 70 70 70 69 69 69 68 68 68 67 67 67 67 67 67 67 67 67 67 67 67 67 67 66 66 66 66 66 66 66 66 66 66 66 66 66 66 66 65 65 65 65 65 66 66 67 68 68 69 70 70 70 70 70 70 70 70 69 69 69 69 69 70 69 68 67 65 64 63 -1 -1 -1 -1 -1 -1 -1 -1 -1 -1 -1 -1 -1 -1 -1 -1 -1 -1 -1 -1 -1 -1 -1 -1 -1 -1 -1 -1 -1 -1 -1 -1 -1 -1 -1 -1 -1 -1 -1 -1 -1 -1 -1 -1 -1 -1 -1 -1 -1 -1 -1 -1 -1 -1 -1 -1 -1 -1 -1 -1 -1 -1 -1 -1 -1 -1 -1 -1 -1 -1 -1 -1 -1 -1 -1 -1 -1 -1 -1
67 67 67 67 67 66 66 66 65 64 64 64 64 64 64 64 64 65 65 64 64 64 64 64 64 64 64 64 64 64 64 64 64 64 64 63 63 63 -1 -1 -1 -1 -1 -1 -1 -1 -1 -1 -1 -1 -1 -1 -1 -1 -1 63 63 64 64 64 64 65 65 65 66 66 66 66 66 66 66 66 67 67 67 67 67 67 67 67 68 68 68 68 68 68 68 68 68 68 67 68 69 69 70 70 71 71 71 71 71 71 71 71 71 71 71 71 70 70 70 69 69 69 68 68 68 68 67 67 67 67 67 67 67 67 67 67 67 67 67 67 67 66 66 66 66 66 66 66 66 66 66 66 66 65 65 65 65 65 65 66 66 68 69 69 70 70 71 70 70 70 70 70 70 69 69 69 69 70 70 69 68 67 65 64 63 -1 -1 -1 -1 -1 -1 -1 -1 -1 -1 -1 -1 -1 -1 -1 -1 -1 -1 -1 -1 -1 -1 -1 -1 -1 -1 -1 -1 -1 -1 -1 -1 -1 -1 -1 -1 -1 -1 -1 -1 -1 -1 -1 -1 -1 -1 -1 -1 -1 -1 -1 -1 -1 -1 -1 -1 -1 -1 -1 -1 -1 -1 -1 -1 -1 -1 -1 -1 -1 -1 -1 -1 -1 -1 -1 -1 -1 -1 -1
67 67 68 67 67 67 67 66 65 65 64 64 64 64 64 64 64 65 65 64 64 64 64 64 64 64 64 64 64 64 64 64 64 64 63 63 63 63 -1 -1 -1 -1 -1 -1 -1 -1 -1 -1 -1 -1 -1 -1 -1 -1 63 63 63 64 64 65 65 65 66 66 66 66 67 67 67 67 67 67 67 67 67 67 67 68 68 68 68 68 68 68 68 68 68 68 68 68 67 68 69 69 71 71 71 71 72 72 72 72 71 71 71 71 71 71 70 70 70 69 69 69 69 68 68 68 67 67 67 67 67 67 67 67 68 67 67 67 67 67 67 67 67 66 66 66 66 66 66 66 66 66 66 65 65 65 65 65 65 66 66 69 70 70 70 70 71 71 71 71 71 70 70 70 69 70 70 70 70 69 68 67 64 64 63 -1 -1 -1 -1 -1 -1 -1 -1 -1 -1 -1 -1 -1 -1 -1 -1 -1 -1 -1 -1 -1 -1 -1 -1 -1 -1 -1 -1 -1 -1 -1 -1 -1 -1 -1 -1 -1 -1 -1 -1 -1 -1 -1 -1 -1 -1 -1 -1 -1 -1 -1 -1 -1 -1 -1 -1 -1 -1 -1 -1 -1 -1 -1 -1 -1 -1 -1 -1 -1 -1 -1 -1 -1 -1 -1 -1 -1 -1 -1
67 67 68 68 67 67 67 66 66 65 64 64 64 64 64 64 65 65 65 65 64 64 64 64 64 64 64 64 64 64 64 64 63 63 63 63 63 -1 -1 -1 -1 -1 -1 -1 -1 -1 -1 -1 -1 -1 -1 -1 -1 63 63 63 64 64 65 65 65 65 66 66 67 67 67 67 67 67 67 67 67 67 67 68 68 68 68 68 68 68 69 69 69 69 69 68 68 68 67 68 69 69 71 71 72 72 72 72 72 72 72 72 71 71 71 71 70 70 70 70 69 69 69 68 68 68 68 68 67 67 67 67 68 68 68 68 67 67 67 67 67 67 67 67 66 66 66 66 66 66 66 66 66 65 65 65 65 65 65 67 68 69 71 71 71 71 71 71 71 71 71 70 70 70 70 70 70 70 70 69 68 67 64 64 63 -1 -1 -1 -1 -1 -1 -1 -1 -1 -1 -1 -1 -1 -1 -1 -1 -1 -1 -1 -1 -1 -1 -1 -1 -1 -1 -1 -1 -1 -1 -1 -1 -1 -1 -1 -1 -1 -1 -1 -1 -1 -1 -1 -1 -1 -1 -1 -1 -1 -1 -1 -1 -1 -1 -1 -1 -1 -1 -1 -1 -1 -1 -1 -1 -1 -1 -1 -1 -1 -1 -1 -1 -1 -1 -1 -1 -1 -1 -1
67 68 68 68 68 67 67 67 66 65 64 64 64 64 64 64 64 65 65 64 64 64 64 64 64 64 64 63 63 63 63 63 63 63 63 63 -1 -1 -1 -1 -1 -1 -1 -1 -1 -1 -1 -1 -1 -1 -1 -1 63 63 63 64 64 65 66 66 66 67 67 67 67 67 67 68 68 68 68 68 68 68 68 68 68 68 68 69 69 69 69 69 69 69 69 69 68 68 68 69 69 70 72 72 72 72 72 72 72 72 72 72 71 71 71 71 70 70 70 70 69 69 69 69 68 68 68 68 68 68 68 68 68 68 68 68 67 67 67 67 67 67 67 66 66 66 66 66 66 66 66 65 65 65 65 66 66 66 67 68 69 70 71 71 71 71 71 71 71 71 71 70 70 70 70 70 70 70 70 69 69 68 67 64 64 63 -1 -1 -1 -1 -1 -1 -1 -1 -1 -1 -1 -1 -1 -1 -1 -1 -1 -1 -1 -1 -1 -1 -1 -1 -1 -1 -1 -1 -1 -1 -1 -1 -1 -1 -1 -1 -1 -1 -1 -1 -1 -1 -1 -1 -1 -1 -1 -1 -1 -1 -1 -1 -1 -1 -1 -1 -1 -1 -1 -1 -1 -1 -1 -1 -1 -1 -1 -1 -1 -1 -1 -1 -1 -1 -1 -1 -1 -1
67 68 68 68 68 68 68 67 66 66 65 65 64 64 64 64 64 64 65 64 64 64 64 64 64 64 63 63 63 63 63 63 63 63 63 -1 -1 -1 -1 -1 -1 -1 -1 -1 -1 -1 -1 -1 -1 -1 -1 -1 63 63 63 64 65 66 66 67 67 67 67 68 68 68 68 68 68 68 68 68 69 69 69 69 69 69 69 69 69 69 69 69 69 69 69 69 69 68 68 69 70 71 72 72 72 72 72 72 72 72 72 72 72 71 71 71 71 70 70 70 69 69 69 69 69 68 68 68 68 68 68 68 68 68 68 68 68 67 67 67 67 67 67 66 66 66 66 66 66 66 65 65 65 65 65 66 67 67 68 69 70 70 71 71 71 71 71 71 71 71 71 71 70 70 70 70 70 70 70 70 69 69 68 66 64 64 63 -1 -1 -1 -1 -1 -1 -1 -1 -1 -1 -1 -1 -1 -1 -1 -1 -1 -1 -1 -1 -1 -1 -1 -1 -1 -1 -1 -1 -1 -1 -1 -1 -1 -1 -1 -1 -1 -1 -1 -1 -1 -1 -1 -1 -1 -1 -1 -1 -1 -1 -1 -1 -1 -1 -1 -1 -1 -1 -1 -1 -1 -1 -1 -1 -1 -1 -1 -1 -1 -1 -1 -1 -1 -1 -1 -1 -1
68 68 68 68 68 68 68 67 67 66 65 65 64 64 64 64 64 64 65 64 64 64 64 64 64 63 63 63 63 63 63 -1 -1 -1 -1 -1 -1 -1 -1 -1 -1 -1 -1 -1 -1 -1 -1 -1 -1 -1 -1 63 63 64 64 64 65 66 67 67 68 68 68 68 68 68 68 69 69 69 69 69 69 69 69 69 69 69 69 69 69 69 70 70 70 70 70 69 69 69 68 69 70 71 72 72 72 72 72 72 72 72 72 72 72 71 71 71 71 70 70 70 69 69 69 69 69 69 69 69 69 69 69 69 69 68 68 68 68 67 67 67 67 67 66 66 66 66 66 66 66 65 65 65 65 65 65 66 67 69 70 70 71 71 71 71 71 71 71 71 71 71 71 71 70 70 70 70 70 70 70 70 69 69 69 67 66 64 63 63 -1 -1 -1 -1 -1 -1 -1 -1 -1 -1 -1 -1 -1 -1 -1 -1 -1 -1 -1 -1 -1 -1 -1 -1 -1 -1 -1 -1 -1 -1 -1 -1 -1 -1 -1 -1 -1 -1 -1 -1 -1 -1 -1 -1 -1 -1 -1 -1 -1 -1 -1 -1 -1 -1 -1 -1 -1 -1 -1 -1 -1 -1 -1 -1 -1 -1 -1 -1 -1 -1 -1 -1 -1 -1 -1 -1
68 68 68 68 68 68 68 68 67 66 66 65 65 64 64 64 64 64 64 64 64 64 64 64 63 63 63 63 63 -1 -1 -1 -1 -1 -1 -1 -1 -1 -1 -1 -1 -1 -1 -1 -1 -1 -1 -1 -1 -1 -1 63 63 64 64 65 66 67 68 68 68 68 68 69 69 69 69 69 69 69 69 70 70 70 70 70 70 70 70 70 70 70 70 70 70 70 70 70 69 69 69 69 70 71 72 72 72 72 73 72 72 72 72 72 72 71 71 71 71 71 70 70 70 69 69 69 69 69 69 69 69 69 69 69 69 68 68 68 68 67 67 67 67 67 66 66 66 66 66 66 65 65 65 65 65 65 65 66 68 70 72 72 72 71 71 71 71 71 71 71 71 71 71 71 71 70 70 70 70 70 70 70 70 70 70 69 67 66 64 63 63 -1 -1 -1 -1 -1 -1 -1 -1 -1 -1 -1 -1 -1 -1 -1 -1 -1 -1 -1 -1 -1 -1 -1 -1 -1 -1 -1 -1 -1 -1 -1 -1 -1 -1 -1 -1 -1 -1 -1 -1 -1 -1 -1 -1 -1 -1 -1 -1 -1 -1 -1 -1 -1 -1 -1 -1 -1 -1 -1 -1 -1 -1 -1 -1 -1 -1 -1 -1 -1 -1 -1 -1 -1 -1 -1
68 68 68 68 68 68 68 68 67 66 66 65 65 65 64 64 64 64 64 64 64 64 64 63 63 63 63 -1 -1 -1 -1 -1 -1 -1 -1 -1 -1 -1 -1 -1 -1 -1 -1 -1 -1 -1 -1 -1 -1 -1 63 63 64 64 65 66 67 67 68 68 68 69 69 69 69 69 69 69 69 69 70 70 70 70 70 70 70 70 70 70 70 70 70 70 70 70 70 70 69 69 68 69 69 71 72 72 72 73 73 73 72 72 72 72 72 72 71 71 71 71 70 70 70 69 69 69 69 69 69 69 69 69 69 69 69 69 69 68 68 68 67 67 67 67 66 66 66 66 66 66 65 65 65 65 65 65 65 67 68 70 72 72 72 71 71 71 71 71 71 71 71 71 71 71 71 71 71 70 70 70 70 70 70 70 70 69 68 67 66 64 64 63 63 -1 -1 -1 -1 -1 -1 -1 -1 -1 -1 -1 -1 -1 -1 -1 -1 -1 -1 -1 -1 -1 -1 -1 -1 -1 -1 -1 -1 -1 -1 -1 -1 -1 -1 -1 -1 -1 -1 -1 -1 -1 -1 -1 -1 -1 -1 -1 -1 -1 -1 -1 -1 -1 -1 -1 -1 -1 -1 -1 -1 -1 -1 -1 -1 -1 -1 -1 -1 -1 -1 -1 -1 -1
68 68 68 68 68 68 68 68 67 67 66 66 65 65 65 65 64 64 64 64 64 64 64 63 63 63 -1 -1 -1 -1 -1 -1 -1 -1 -1 -1 -1 -1 -1 -1 -1 -1 -1 -1 -1 -1 -1 -1 -1 -1 63 63 64 64 66 67 67 68 68 69 69 69 69 69 69 70 70 70 70 70 70 70 70 70 70 70 70 70 70 70 70 70 70 70 70 70 70 70 69 69 68 69 69 71 72 73 73 73 73 73 73 72 72 72 72 72 72 71 71 71 71 70 70 70 69 69 69 69 69 69 69 69 69 70 70 70 70 69 68 68 67 67 67 66 66 66 66 66 66 65 65 65 65 65 65 65 66 67 68 70 70 72 72 72 71 71 71 71 71 71 71 71 71 71 71 71 71 71 70 70 70 70 70 70 69 69 68 67 67 66 65 63 63 63 -1 -1 -1 -1 -1 -1 -1 -1 -1 -1 -1 -1 -1 -1 -1 -1 -1 -1 -1 -1 -1 -1 -1 -1 -1 -1 -1 -1 -1 -1 -1 -1 -1 -1 -1 -1 -1 -1 -1 -1 -1 -1 -1 -1 -1 -1 -1 -1 -1 -1 -1 -1 -1 -1 -1 -1 -1 -1 -1 -1 -1 -1 -1 -1 -1 -1 -1 -1 -1 -1 -1 -1
67 68 68 68 68 68 68 68 67 67 67 66 66 66 65 65 65 64 64 64 64 64 63 63 63 63 -1 -1 -1 -1 -1 -1 -1 -1 -1 -1 -1 -1 -1 -1 -1 -1 -1 -1 -1 -1 -1 -1 -1 -1 63 64 64 65 66 67 68 68 69 69 69 69 69 70 70 70 70 70 70 70 70 70 70 70 71 71 71 71 70 70 71 71 71 70 70 70 70 69 69 68 68 69 70 71 73 73 73 73 74 73 73 73 72 72 72 72 72 72 71 71 71 70 70 70 69 69 69 69 69 69 69 69 69 70 70 71 71 70 69 68 67 67 67 66 66 66 66 66 66 65 65 65 65 65 65 66 66 67 68 70 70 72 72 72 72 71 71 71 71 71 71 70 70 70 71 71 71 71 70 70 70 70 70 69 69 69 68 68 68 67 66 65 65 64 63 -1 -1 -1 -1 -1 -1 -1 -1 -1 -1 -1 -1 -1 -1 -1 -1 -1 -1 -1 -1 -1 -1 -1 -1 -1 -1 -1 -1 -1 -1 -1 -1 -1 -1 -1 -1 -1 -1 -1 -1 -1 -1 -1 -1 -1 -1 -1 -1 -1 -1 -1 -1 -1 -1 -1 -1 -1 -1 -1 -1 -1 -1 -1 -1 -1 -1 -1 -1 -1 -1 -1
67 67 67 67 67 68 68 67 67 67 67 67 66 66 66 66 65 64 64 64 64 63 63 63 63 -1 -1 -1 -1 -1 -1 -1 -1 -1 -1 -1 -1 -1 -1 -1 -1 -1 -1 -1 -1 -1 -1 -1 -1 63 63 64 64 66 67 68 68 69 69 69 69 70 70 70 70 70 71 70 70 70 70 70 70 71 71 71 71 71 71 71 71 71 71 70 70 70 70 69 69 68 68 69 70 71 73 73 73 74 74 74 73 73 72 72 72 72 72 72 71 71 71 71 70 70 70 69 69 69 69 69 69 69 69 70 71 72 74 71 69 68 67 67 67 66 66 66 66 66 65 65 65 65 65 65 65 66 66 67 68 70 72 72 72 72 72 72 71 71 71 71 71 70 70 70 71 71 71 71 71 70 70 70 70 69 69 69 69 69 69 68 68 67 67 64 63 -1 -1 -1 -1 -1 -1 -1 -1 -1 -1 -1 -1 -1 -1 -1 -1 -1 -1 -1 -1 -1 -1 -1 -1 -1 -1 -1 -1 -1 -1 -1 -1 -1 -1 -1 -1 -1 -1 -1 -1 -1 -1 -1 -1 -1 -1 -1 -1 -1 -1 -1 -1 -1 -1 -1 -1 -1 -1 -1 -1 -1 -1 -1 -1 -1 -1 -1 -1 -1 -1 -1
67 67 67 67 67 67 67 67 67 67 67 66 66 66 66 65 65 64 64 64 64 63 63 63 63 -1 -1 -1 -1 -1 -1 -1 -1 -1 -1 -1 -1 -1 -1 -1 -1 -1 -1 -1 -1 -1 -1 -1 63 63 64 64 65 66 68 68 69 69 69 69 70 70 70 70 70 70 70 70 70 69 69 70 70 70 71 71 71 71 71 71 71 71 71 71 70 70 70 69 69 68 68 69 69 70 72 72 72 73 73 73 72 72 72 72 72 72 72 72 71 71 71 70 70 70 70 70 70 70 69 70 70 70 70 71 71 72 74 71 70 69 68 68 67 67 66 66 66 66 66 66 66 66 66 66 67 67 67 68 69 70 72 72 72 72 72 72 71 71 71 71 71 71 70 71 71 71 71 71 70 70 70 70 69 69 69 69 69 69 69 68 68 68 67 65 64 63 -1 -1 -1 -1 -1 -1 -1 -1 -1 -1 -1 -1 -1 -1 -1 -1 -1 -1 -1 -1 -1 -1 -1 -1 -1 -1 -1 -1 -1 -1 -1 -1 -1 -1 -1 -1 -1 -1 -1 -1 -1 -1 -1 -1 -1 -1 -1 -1 -1 -1 -1 -1 -1 -1 -1 -1 -1 -1 -1 -1 -1 -1 -1 -1 -1 -1 -1 -1 -1 -1
67 67 67 67 67 67 67 67 66 66 66 66 66 66 66 65 65 65 64 64 64 63 63 63 63 -1 -1 -1 -1 -1 -1 -1 -1 -1 -1 -1 -1 -1 -1 -1 -1 -1 -1 -1 -1 -1 -1 -1 63 63 64 64 66 67 68 68 68 69 70 70 70 70 70 70 70 70 70 -1 69 69 69 69 70 70 71 71 71 71 71 71 71 71 71 71 70 70 70 70 69 68 68 68 69 70 71 71 72 72 73 72 72 71 71 71 71 71 72 71 71 71 70 70 70 70 70 70 70 70 70 70 71 70 70 71 72 73 74 72 71 71 69 68 68 67 67 67 67 67 67 67 67 67 67 68 68 68 68 69 70 71 72 72 72 72 72 72 71 71 71 71 71 71 71 71 71 71 71 71 70 70 70 70 69 69 69 69 69 69 69 68 68 68 68 66 65 64 63 63 -1 -1 -1 -1 -1 -1 -1 -1 -1 -1 -1 -1 -1 -1 -1 -1 -1 -1 -1 -1 -1 -1 -1 -1 -1 -1 -1 -1 -1 -1 -1 -1 -1 -1 -1 -1 -1 -1 -1 -1 -1 -1 -1 -1 -1 -1 -1 -1 -1 -1 -1 -1 -1 -1 -1 -1 -1 -1 -1 -1 -1 -1 -1 -1 -1 -1 -1 -1
67 67 67 67 66 66 66 66 66 66 66 66 66 66 66 65 65 65 64 64 64 63 63 63 63 -1 -1 -1 -1 -1 -1 -1 -1 -1 -1 -1 -1 -1 -1 -1 -1 -1 -1 -1 -1 -1 63 63 63 64 64 66 67 68 69 68 68 69 70 70 70 70 70 70 70 -1 -1 -1 69 69 68 69 70 70 71 71 71 71 71 71 71 71 71 71 71 70 70 70 69 69 68 68 69 69 70 70 70 72 73 72 71 71 70 71 71 71 71 71 71 71 70 70 70 70 71 71 71 71 71 71 72 72 72 72 73 73 74 72 71 71 70 69 68 68 67 67 68 68 68 68 68 68 69 69 69 70 70 71 71 72 72 72 72 72 72 72 72 71 71 71 71 71 71 71 71 71 71 71 70 70 70 70 69 69 69 69 69 69 69 69 68 68 68 67 67 66 65 64 63 -1 -1 -1 -1 -1 -1 -1 -1 -1 -1 -1 -1 -1 -1 -1 -1 -1 -1 -1 -1 -1 -1 -1 -1 -1 -1 -1 -1 -1 -1 -1 -1 -1 -1 -1 -1 -1 -1 -1 -1 -1 -1 -1 -1 -1 -1 -1 -1 -1 -1 -1 -1 -1 -1 -1 -1 -1 -1 -1 -1 -1 -1 -1 -1 -1 -1 -1
67 67 67 66 66 66 66 66 65 65 65 65 65 65 65 65 65 65 64 64 64 63 63 63 63 -1 -1 -1 -1 -1 -1 -1 -1 -1 -1 -1 -1 -1 -1 -1 -1 -1 -1 -1 -1 -1 63 64 64 64 66 67 68 68 69 69 70 70 70 70 70 71 71 70 70 -1 -1 -1 69 69 68 69 69 70 71 71 71 71 71 71 71 71 71 71 71 71 70 70 69 69 68 68 69 69 69 70 70 71 72 72 71 70 70 70 70 71 71 71 71 70 70 70 71 71 71 71 72 72 72 73 73 73 73 73 74 74 74 73 72 72 71 70 69 68 68 68 68 68 68 69 69 69 70 70 71 71 72 72 72 72 73 72 72 72 72 72 72 72 71 71 71 71 71 71 71 71 71 71 70 70 70 69 69 69 68 68 68 69 69 69 69 69 69 68 68 68 67 65 63 -1 -1 -1 -1 -1 -1 -1 -1 -1 -1 -1 -1 -1 -1 -1 -1 -1 -1 -1 -1 -1 -1 -1 -1 -1 -1 -1 -1 -1 -1 -1 -1 -1 -1 -1 -1 -1 -1 -1 -1 -1 -1 -1 -1 -1 -1 -1 -1 -1 -1 -1 -1 -1 -1 -1 -1 -1 -1 -1 -1 -1 -1 -1 -1 -1 -1 -1
66 66 66 66 66 66 65 65 65 65 65 65 65 65 65 65 64 64 64 64 64 63 63 63 63 -1 -1 -1 -1 -1 -1 -1 -1 -1 -1 -1 -1 -1 -1 -1 -1 -1 -1 -1 -1 63 63 64 64 65 67 67 68 69 69 70 70 70 70 70 71 71 71 70 70 -1 -1 -1 69 68 68 69 69 70 71 71 71 71 71 71 71 71 71 71 71 70 70 70 69 68 68 68 68 69 69 70 70 71 72 71 71 70 69 70 70 70 71 71 70 70 70 70 70 71 71 71 71 72 72 72 72 72 72 73 73 73 73 73 72 72 71 70 70 69 68 69 69 69 69 70 70 70 70 70 71 72 72 72 72 72 73 72 72 72 72 72 71 71 71 71 71 71 71 71 71 71 71 71 70 70 70 69 69 69 68 68 68 69 69 69 69 69 69 68 68 68 68 66 64 63 63 -1 -1 -1 -1 -1 -1 -1 -1 -1 -1 -1 -1 -1 -1 -1 -1 -1 -1 -1 -1 -1 -1 -1 -1 -1 -1 -1 -1 -1 -1 -1 -1 -1 -1 -1 -1 -1 -1 -1 -1 -1 -1 -1 -1 -1 -1 -1 -1 -1 -1 -1 -1 -1 -1 -1 -1 -1 -1 -1 -1 -1 -1 -1 -1 -1
66 66 66 66 66 65 65 65 65 64 64 64 64 64 64 64 64 64 64 64 63 63 63 63 -1 -1 -1 -1 -1 -1 -1 -1 -1 -1 -1 -1 -1 -1 -1 -1 -1 -1 -1 -1 -1 63 64 64 65 66 68 68 69 69 70 70 70 70 71 71 71 71 71 70 70 70 -1 69 69 68 68 69 69 70 71 71 71 71 71 71 71 71 71 71 70 70 70 69 69 68 68 68 68 69 69 70 70 71 72 71 70 70 69 69 70 70 70 70 70 70 70 70 70 71 71 71 71 71 72 72 72 72 72 72 72 72 73 72 72 72 72 70 70 70 69 70 70 70 70 70 70 70 70 71 71 72 72 72 72 72 73 72 72 72 72 71 71 71 71 71 71 71 71 71 71 71 71 71 70 70 70 69 69 69 68 68 68 69 69 69 69 69 69 69 69 68 68 67 66 65 64 63 -1 -1 -1 -1 -1 -1 -1 -1 -1 -1 -1 -1 -1 -1 -1 -1 -1 -1 -1 -1 -1 -1 -1 -1 -1 -1 -1 -1 -1 -1 -1 -1 -1 -1 -1 -1 -1 -1 -1 -1 -1 -1 -1 -1 -1 -1 -1 -1 -1 -1 -1 -1 -1 -1 -1 -1 -1 -1 -1 -1 -1 -1 -1 -1
66 66 66 66 65 65 65 64 64 64 64 64 64 64 64 64 64 64 64 64 63 63 63 63 -1 -1 -1 -1 -1 -1 -1 -1 -1 -1 -1 -1 -1 -1 -1 -1 -1 -1 -1 -1 -1 63 64 64 66 67 68 69 69 70 70 70 71 71 71 71 71 71 71 71 70 70 70 69 69 68 68 68 69 70 70 71 71 71 71 71 71 71 71 70 70 70 70 69 68 68 67 68 68 69 69 70 70 71 71 71 70 69 69 69 69 69 70 70 70 70 70 70 70 70 71 71 71 71 71 71 71 71 72 72 72 72 72 72 72 72 72 72 71 71 71 71 71 71 71 71 71 71 71 71 71 72 72 72 72 72 73 72 72 72 71 71 71 71 71 71 71 71 71 71 71 71 71 71 70 70 70 69 69 69 68 68 68 69 69 69 69 69 69 69 69 69 69 68 68 67 67 65 63 -1 -1 -1 -1 -1 -1 -1 -1 -1 -1 -1 -1 -1 -1 -1 -1 -1 -1 -1 -1 -1 -1 -1 -1 -1 -1 -1 -1 -1 -1 -1 -1 -1 -1 -1 -1 -1 -1 -1 -1 -1 -1 -1 -1 -1 -1 -1 -1 -1 -1 -1 -1 -1 -1 -1 -1 -1 -1 -1 -1 -1 -1 -1
65 65 66 65 65 64 64 64 64 64 64 64 64 64 64 64 64 64 64 64 63 63 -1 -1 -1 -1 -1 -1 -1 -1 -1 -1 -1 -1 -1 -1 -1 -1 -1 -1 -1 -1 -1 -1 63 63 64 65 67 68 69 70 70 70 71 71 71 71 71 71 71 71 72 71 71 70 70 69 69 68 68 68 69 70 70 70 70 70 70 70 71 71 71 70 70 70 69 69 68 68 67 68 68 69 69 70 70 71 71 70 70 69 69 69 69 69 69 70 70 70 70 70 70 70 70 71 71 71 71 71 71 71 71 71 71 72 72 72 72 72 72 72 72 72 72 72 72 72 72 72 72 72 72 72 72 72 72 72 72 72 73 72 72 71 71 71 71 70 70 70 70 70 70 71 71 71 71 71 70 70 70 69 69 69 68 68 69 69 69 69 69 65 66 67 69 69 69 69 69 69 69 67 64 63 -1 -1 -1 -1 -1 -1 -1 -1 -1 -1 -1 -1 -1 -1 -1 -1 -1 -1 -1 -1 -1 -1 -1 -1 -1 -1 -1 -1 -1 -1 -1 -1 -1 -1 -1 -1 -1 -1 -1 -1 -1 -1 -1 -1 -1 -1 -1 -1 -1 -1 -1 -1 -1 -1 -1 -1 -1 -1 -1 -1 -1 64
65 65 65 65 64 64 64 64 64 64 64 64 64 64 64 64 64 64 64 63 63 63 -1 -1 -1 -1 -1 -1 -1 -1 -1 -1 -1 -1 -1 -1 -1 -1 -1 -1 -1 -1 -1 -1 63 64 65 66 68 69 70 70 70 71 71 71 71 71 71 71 71 71 71 71 71 70 70 69 68 68 67 67 67 68 68 68 68 68 68 69 69 70 70 70 70 69 69 68 68 67 67 68 68 68 69 69 69 70 70 69 69 68 68 68 68 69 69 69 69 70 70 70 70 70 70 70 70 71 71 71 71 71 71 71 71 71 71 71 72 72 72 72 72 72 72 72 72 72 72 72 72 72 72 72 72 72 72 72 72 72 72 72 71 71 71 71 70 70 70 70 70 70 70 70 70 71 71 70 70 70 70 69 69 69 69 69 69 69 69 69 69 65 67 67 68 69 69 69 69 69 69 68 66 64 63 -1 -1 -1 -1 -1 -1 -1 -1 -1 -1 -1 -1 -1 -1 -1 -1 -1 -1 -1 -1 -1 -1 -1 -1 -1 -1 -1 -1 -1 -1 -1 -1 -1 -1 -1 -1 -1 -1 -1 -1 -1 -1 -1 -1 -1 -1 -1 -1 -1 -1 -1 -1 -1 -1 -1 -1 -1 -1 -1 63 67
64 64 64 64 64 64 64 64 64 64 64 64 64 64 64 64 64 64 63 63 63 -1 -1 -1 -1 -1 -1 -1 -1 -1 -1 -1 -1 -1 -1 -1 -1 -1 -1 -1 -1 -1 -1 63 64 64 66 67 69 69 70 71 71 71 71 71 71 71 71 71 71 71 71 71 71 70 70 69 69 67 66 66 66 65 65 66 66 66 66 67 68 68 69 70 70 68 68 67 67 67 67 67 68 68 68 68 68 68 69 68 68 68 68 68 68 68 69 69 69 69 69 70 70 70 70 70 70 70 70 70 70 70 70 71 71 71 71 71 71 71 72 72 72 72 72 71 71 71 71 71 71 71 72 71 71 71 71 71 71 71 72 71 71 71 71 70 70 70 70 70 70 70 70 70 70 70 70 70 70 70 70 69 69 69 69 69 69 69 69 69 69 68 67 67 69 69 69 69 69 69 70 68 67 66 64 63 63 -1 -1 -1 -1 -1 -1 -1 -1 -1 -1 -1 -1 -1 -1 -1 -1 -1 -1 -1 -1 -1 -1 -1 -1 -1 -1 -1 -1 -1 -1 -1 -1 -1 -1 -1 -1 -1 -1 -1 -1 -1 -1 -1 -1 -1 -1 -1 -1 -1 -1 -1 -1 -1 -1 -1 -1 -1 63 75
64 64 64 64 64 64 64 64 64 64 64 64 64 64 63 63 63 63 63 63 63 -1 -1 -1 -1 -1 63 -1 -1 -1 -1 -1 -1 -1 -1 -1 -1 -1 -1 -1 -1 -1 63 64 64 65 67 68 69 70 71 71 71 71 71 71 71 71 71 71 71 71 71 71 71 71 70 69 69 66 64 64 64 64 64 64 64 64 64 65 66 67 68 68 67 67 66 66 67 67 67 67 67 67 67 67 67 67 67 67 67 67 67 68 68 68 68 69 69 69 69 69 69 69 70 70 70 70 70 70 70 70 70 70 70 70 71 71 71 71 71 71 71 72 72 71 71 71 71 71 71 71 71 71 71 71 71 71 71 71 71 71 71 71 70 70 70 70 70 70 70 70 70 70 70 70 70 70 70 70 70 69 69 69 69 69 69 69 69 69 69 69 69 69 69 69 69 69 70 70 70 69 68 67 66 65 64 -1 -1 -1 -1 -1 -1 -1 -1 -1 -1 -1 -1 -1 -1 -1 -1 -1 -1 -1 -1 -1 -1 -1 -1 -1 -1 -1 -1 -1 -1 -1 -1 -1 -1 -1 -1 -1 -1 -1 -1 -1 -1 -1 -1 -1 -1 -1 -1 -1 -1 -1 -1 -1 -1 -1 -1 63 76 77
64 64 64 64 64 64 64 64 64 64 64 64 63 63 63 63 63 63 63 63 -1 -1 -1 -1 -1 -1 63 -1 -1 -1 -1 -1 -1 -1 -1 -1 -1 -1 -1 -1 -1 63 64 64 65 67 69 69 70 71 71 71 71 71 71 71 71 71 71 71 71 71 71 71 71 71 71 68 66 64 64 64 63 63 63 63 63 64 64 64 65 66 67 67 66 65 64 65 66 67 68 67 67 66 66 67 67 66 66 66 67 67 67 68 68 68 68 68 68 69 69 69 69 69 69 70 70 70 70 70 70 70 70 70 70 70 70 70 70 71 71 71 71 71 71 71 71 71 70 71 71 71 71 71 71 71 70 70 70 71 71 70 70 70 70 70 70 70 70 70 70 70 70 70 70 70 70 69 69 69 69 69 69 69 69 69 69 69 69 69 69 69 69 69 69 70 70 70 70 70 70 69 69 68 68 67 65 63 -1 -1 -1 -1 -1 -1 -1 -1 -1 -1 -1 -1 -1 -1 -1 -1 -1 -1 -1 -1 -1 -1 -1 -1 -1 -1 -1 -1 -1 -1 -1 63 63 63 63 63 63 -1 -1 -1 -1 -1 -1 -1 -1 -1 -1 -1 -1 -1 -1 -1 -1 -1 -1 63 79 79
64 64 64 64 64 64 64 64 64 63 63 63 63 63 63 63 63 63 63 63 -1 -1 -1 -1 -1 -1 63 -1 -1 -1 -1 -1 -1 -1 -1 -1 -1 -1 -1 -1 -1 63 64 65 66 68 69 70 70 71 71 71 71 71 71 71 71 71 71 71 71 71 70 70 70 70 70 67 65 64 64 63 63 63 -1 -1 63 63 63 63 64 64 65 64 64 64 64 64 64 65 66 66 66 65 65 65 65 66 66 66 66 67 67 67 67 67 68 68 68 68 68 68 69 69 69 69 69 69 69 69 69 69 69 69 69 70 70 70 70 70 70 70 70 70 70 70 70 70 70 70 70 70 71 70 70 70 70 70 70 70 70 70 70 70 70 70 70 70 69 69 69 69 69 69 69 69 69 69 69 69 69 69 69 69 69 69 69 69 69 69 69 69 69 69 70 70 70 70 70 70 70 69 69 69 69 68 66 65 63 63 63 -1 -1 -1 -1 -1 -1 -1 -1 -1 -1 -1 -1 -1 -1 -1 -1 -1 -1 -1 -1 -1 -1 -1 -1 -1 -1 63 63 63 63 63 63 63 63 63 -1 -1 -1 -1 -1 -1 -1 -1 -1 -1 -1 -1 -1 -1 -1 -1 -1 63 63 64
63 63 63 63 63 63 63 63 63 63 63 63 63 63 63 63 63 63 63 -1 -1 -1 -1 -1 -1 -1 -1 -1 -1 -1 -1 -1 -1 -1 -1 -1 -1 -1 -1 -1 63 64 64 66 67 68 70 70 71 71 72 72 71 71 71 71 71 71 70 70 70 70 70 70 69 69 69 66 65 64 63 63 -1 -1 -1 -1 -1 -1 -1 -1 63 63 64 63 63 63 63 63 64 64 64 64 64 64 64 65 65 65 65 66 66 66 67 67 67 67 67 67 67 68 68 68 68 68 68 68 68 69 69 69 69 69 69 69 69 69 69 69 70 70 70 70 70 70 70 70 70 70 70 70 70 70 70 70 70 70 70 70 70 70 70 69 69 69 69 69 69 69 69 69 69 69 69 69 69 69 69 69 69 69 69 69 69 69 69 69 69 69 69 69 69 69 69 69 70 70 70 70 70 70 70 70 69 69 69 69 68 67 65 63 63 64 63 63 64 64 64 63 63 -1 -1 -1 -1 -1 -1 -1 -1 -1 -1 -1 -1 -1 -1 -1 -1 -1 -1 63 63 63 63 63 63 63 63 63 63 -1 -1 -1 -1 -1 -1 -1 -1 -1 -1 -1 -1 -1 -1 -1 -1 -1 -1 63
63 63 63 63 63 63 63 63 63 63 63 63 63 63 63 63 63 63 63 -1 -1 -1 -1 -1 -1 -1 -1 -1 -1 -1 -1 -1 -1 -1 -1 -1 -1 -1 -1 -1 63 64 65 67 68 69 70 71 71 71 72 72 72 71 71 71 71 70 70 70 70 70 69 69 69 68 68 66 64 64 63 -1 -1 -1 -1 -1 -1 -1 -1 -1 -1 -1 -1 -1 -1 -1 -1 63 63 63 63 64 64 64 64 64 64 65 65 65 66 66 66 66 66 67 67 67 67 68 68 67 68 68 68 68 68 68 68 68 68 68 68 68 69 69 69 69 69 69 69 69 69 69 69 69 69 69 69 69 69 69 69 69 69 69 69 69 69 69 69 69 69 69 69 69 69 69 69 69 69 69 69 69 69 69 69 69 69 69 69 69 69 69 69 69 69 69 69 69 69 69 69 70 70 70 70 70 70 70 70 70 70 70 70 70 69 69 69 68 66 67 66 66 67 67 68 65 64 63 -1 -1 -1 -1 -1 -1 -1 -1 -1 -1 -1 -1 -1 -1 -1 63 63 63 63 63 63 63 63 63 63 63 63 63 -1 -1 -1 -1 -1 -1 -1 -1 -1 -1 -1 -1 -1 -1 -1 -1 -1 -1
63 63 63 63 63 63 63 63 63 63 63 63 63 63 63 63 63 63 -1 -1 -1 -1 -1 -1 -1 -1 -1 -1 -1 -1 -1 -1 -1 -1 -1 -1 -1 -1 -1 -1 63 64 66 67 69 70 71 71 71 72 72 72 72 72 71 71 71 70 70 69 69 69 69 68 68 68 67 65 64 63 63 -1 -1 -1 -1 -1 -1 -1 -1 -1 -1 -1 -1 -1 -1 -1 -1 -1 -1 -1 63 63 63 63 63 64 64 64 65 65 65 66 66 66 66 66 66 66 66 67 67 67 67 67 67 67 67 68 68 68 68 68 68 68 68 68 68 69 69 69 69 69 69 69 69 69 69 69 69 69 69 69 69 69 69 69 69 69 69 69 69 69 68 68 68 68 69 69 69 69 69 69 69 69 69 68 68 69 69 69 69 69 69 69 69 69 69 69 69 69 69 69 70 70 70 70 70 70 70 70 70 70 70 70 71 71 71 71 71 71 71 71 72 72 73 74 75 70 66 64 -1 -1 -1 -1 -1 -1 -1 -1 -1 -1 -1 -1 63 63 63 63 63 63 63 63 63 63 63 63 63 63 63 63 63 -1 -1 -1 -1 -1 -1 -1 -1 -1 -1 -1 -1 -1 -1 -1 -1 -1
63 -1 -1 -1 -1 -1 -1 63 63 63 63 63 63 63 63 63 63 -1 -1 -1 -1 -1 -1 -1 -1 -1 -1 -1 -1 -1 -1 -1 -1 -1 -1 -1 -1 -1 -1 63 64 64 67 68 69 70 71 71 71 71 72 71 71 71 71 70 70 70 69 68 68 67 66 66 66 65 65 64 64 63 63 -1 -1 -1 -1 -1 -1 -1 -1 -1 -1 -1 -1 -1 -1 -1 -1 -1 -1 -1 -1 -1 63 63 63 63 64 64 64 64 65 65 65 65 65 65 66 66 66 66 66 66 67 67 67 67 67 67 67 67 67 67 67 67 67 68 68 68 68 68 68 68 68 68 68 68 68 68 68 68 68 68 68 68 68 68 68 68 68 68 68 68 68 68 68 68 68 68 68 68 68 68 68 68 68 68 68 68 68 69 69 69 69 69 69 69 69 69 69 69 69 69 70 70 70 70 70 70 70 70 70 70 70 70 71 71 71 71 71 71 71 72 72 72 73 74 75 71 68 66 64 63 63 -1 -1 -1 -1 -1 -1 -1 -1 -1 -1 -1 -1 -1 -1 63 63 63 63 63 63 63 63 63 63 63 63 63 -1 -1 -1 -1 -1 -1 -1 -1 -1 -1 -1 -1 -1 -1 -1 -1
-1 -1 -1 -1 -1 -1 -1 -1 63 63 63 63 63 63 -1 -1 -1 -1 -1 -1 -1 -1 -1 -1 -1 -1 -1 -1 -1 -1 -1 -1 -1 -1 -1 -1 -1 63 63 64 64 65 67 68 69 70 70 71 71 71 71 71 71 70 70 70 69 69 69 67 66 65 65 64 64 64 64 64 63 63 -1 -1 -1 -1 -1 -1 -1 -1 -1 -1 -1 -1 -1 -1 -1 -1 -1 -1 -1 -1 -1 -1 -1 -1 63 63 63 64 64 64 64 64 65 65 65 65 65 65 65 66 66 66 66 66 66 66 66 66 66 66 66 66 66 67 67 67 67 67 67 68 68 68 68 68 68 68 68 68 68 68 68 68 68 68 68 68 68 68 68 68 68 68 68 68 67 68 68 68 68 68 68 68 68 68 68 68 68 68 68 68 69 69 69 69 69 69 69 69 69 69 69 69 70 70 70 70 70 70 70 70 70 70 70 71 71 71 71 71 71 71 72 72 72 72 73 74 75 72 70 68 67 65 63 63 -1 -1 -1 -1 -1 -1 -1 -1 -1 -1 -1 -1 -1 63 63 63 63 63 63 63 63 63 63 63 63 63 63 -1 -1 -1 -1 -1 -1 -1 -1 -1 -1 -1 -1 -1 -1 -1
-1 -1 -1 -1 -1 -1 -1 -1 -1 63 63 63 -1 -1 -1 -1 -1 -1 -1 -1 -1 -1 -1 -1 -1 -1 -1 -1 -1 -1 -1 -1 -1 -1 -1 -1 63 63 64 64 65 66 68 68 69 70 70 70 71 71 71 71 70 70 69 69 68 69 69 66 65 64 64 64 64 64 64 63 63 63 -1 -1 -1 -1 -1 -1 -1 -1 -1 -1 -1 -1 -1 -1 -1 -1 -1 -1 -1 -1 -1 -1 -1 -1 -1 63 63 63 63 64 64 64 64 64 64 64 65 65 65 65 65 65 66 66 66 66 66 66 66 66 66 66 66 66 66 66 67 67 67 67 67 67 67 67 67 67 68 68 67 67 67 67 67 67 68 68 68 68 68 67 67 67 67 67 67 67 67 67 68 68 68 68 67 68 68 68 68 68 68 68 68 69 69 69 69 69 69 69 69 69 69 69 70 70 70 70 70 70 70 70 70 70 71 71 71 71 71 71 71 72 72 72 72 72 73 74 75 72 71 70 69 67 64 63 -1 -1 -1 -1 -1 -1 -1 -1 -1 -1 -1 -1 -1 -1 63 63 63 63 63 63 63 63 63 63 63 63 63 63 -1 -1 -1 -1 -1 -1 -1 -1 -1 -1 -1 -1 -1 -1
-1 -1 -1 -1 -1 -1 -1 -1 -1 -1 63 -1 -1 -1 -1 -1 -1 -1 -1 -1 -1 -1 -1 -1 -1 -1 -1 -1 -1 -1 -1 -1 -1 -1 -1 63 63 64 65 66 66 67 68 69 69 70 70 70 70 71 71 70 69 69 68 67 67 67 67 65 64 64 63 63 63 63 63 63 63 -1 -1 -1 -1 -1 -1 -1 -1 -1 -1 -1 -1 -1 -1 -1 -1 -1 -1 -1 -1 -1 -1 -1 -1 -1 -1 -1 63 63 63 63 63 64 64 64 64 64 64 64 64 65 65 65 65 65 65 66 66 65 65 65 65 65 65 65 65 66 66 66 66 67 67 67 67 67 66 67 67 67 67 67 67 67 67 67 67 67 67 68 68 67 67 67 67 67 67 67 67 67 67 67 68 68 67 67 67 67 68 68 68 68 68 68 69 69 69 69 69 69 69 69 69 69 70 70 70 70 70 70 70 70 70 70 71 71 71 71 71 71 71 72 72 72 72 72 73 74 76 74 72 72 71 68 65 63 -1 -1 -1 -1 -1 -1 -1 -1 -1 -1 -1 -1 -1 -1 63 63 63 63 63 63 63 63 63 63 63 63 63 63 -1 -1 -1 -1 -1 -1 -1 -1 -1 -1 -1 -1 -1 -1
-1 -1 -1 -1 -1 -1 -1 -1 -1 -1 -1 -1 -1 -1 -1 -1 -1 -1 -1 -1 -1 -1 -1 -1 -1 -1 -1 -1 -1 -1 -1 -1 -1 -1 -1 63 63 64 64 65 66 67 68 69 69 69 69 70 70 70 70 69 68 67 65 65 65 65 65 64 64 64 63 63 63 63 63 63 63 -1 -1 -1 -1 -1 -1 -1 -1 -1 -1 -1 -1 -1 -1 -1 -1 -1 -1 -1 -1 -1 -1 -1 -1 -1 -1 -1 -1 -1 63 63 63 63 64 64 64 64 64 64 64 64 64 64 64 65 65 65 64 64 64 64 64 64 64 65 65 65 65 66 66 66 66 66 66 66 66 66 66 66 66 66 66 66 67 67 67 67 67 67 67 67 66 66 66 66 66 67 67 67 67 67 67 67 67 67 67 67 67 67 68 68 68 68 68 69 69 69 69 69 69 69 69 69 70 70 70 70 70 70 70 70 71 71 71 71 71 71 71 71 71 72 72 72 72 72 73 74 75 74 72 72 71 68 65 63 -1 -1 -1 -1 -1 -1 -1 -1 -1 -1 -1 -1 -1 -1 63 63 63 63 63 63 63 63 63 63 63 63 63 63 63 -1 -1 -1 -1 -1 -1 -1 -1 -1 -1 -1 -1 -1
-1 -1 -1 -1 -1 -1 -1 -1 -1 -1 -1 -1 -1 -1 -1 -1 -1 -1 -1 -1 63 63 63 63 63 63 63 63 63 63 63 63 63 63 63 63 63 64 64 65 66 67 68 68 69 69 69 69 69 69 69 68 66 65 64 64 64 64 64 64 64 63 63 63 63 63 63 63 63 -1 -1 -1 -1 -1 -1 -1 -1 -1 -1 -1 -1 -1 -1 -1 -1 -1 -1 -1 -1 -1 -1 -1 -1 -1 -1 -1 -1 -1 -1 63 63 63 63 63 63 64 64 64 64 64 64 64 64 64 64 64 64 64 64 64 64 64 64 64 64 65 65 65 65 65 66 66 66 66 66 66 66 66 66 66 66 66 66 66 66 66 66 66 66 66 66 66 66 66 66 66 66 66 67 67 67 66 66 67 67 67 67 67 67 68 68 68 68 68 69 69 69 69 69 69 69 69 70 70 70 70 70 70 70 71 71 71 71 71 71 71 71 71 71 72 72 72 72 72 73 74 75 73 72 72 71 68 65 63 -1 -1 -1 -1 -1 -1 -1 -1 -1 -1 -1 -1 -1 -1 63 63 63 63 63 63 63 -1 63 63 63 63 63 63 63 63 63 63 63 -1 -1 -1 -1 -1 -1 -1 -1 -1
-1 -1 -1 -1 -1 -1 -1 -1 -1 -1 -1 -1 -1 -1 -1 -1 -1 -1 -1 -1 63 63 63 63 64 64 64 64 63 63 63 63 63 63 63 63 63 64 64 64 65 67 68 68 68 69 69 69 68 68 68 67 65 64 64 64 64 64 64 63 63 63 63 63 63 63 63 63 63 -1 -1 -1 -1 -1 -1 -1 -1 -1 -1 -1 -1 -1 -1 -1 -1 -1 -1 -1 -1 -1 -1 -1 -1 -1 -1 -1 -1 -1 -1 -1 -1 63 63 63 63 63 63 63 64 64 64 64 64 64 64 64 64 64 64 64 64 64 64 64 64 64 64 65 65 65 65 65 65 65 65 65 65 65 65 66 66 66 66 66 66 66 66 66 66 66 66 66 66 66 66 66 66 66 66 66 66 66 66 66 66 66 66 67 67 67 68 68 68 68 68 68 69 69 69 69 69 69 70 70 70 70 70 70 71 71 71 71 71 71 71 71 71 71 71 72 72 72 72 72 73 74 75 73 72 72 71 68 65 63 -1 -1 -1 -1 -1 -1 -1 -1 -1 -1 -1 -1 -1 63 63 63 63 63 63 63 63 63 63 63 63 63 63 63 63 63 63 63 63 63 -1 -1 -1 -1 -1 -1 -1 -1
-1 -1 -1 -1 -1 -1 -1 -1 -1 -1 -1 -1 -1 -1 -1 -1 -1 -1 -1 63 63 64 64 64 64 64 64 64 64 64 64 63 63 63 63 63 63 63 64 64 65 66 68 68 68 68 68 68 68 68 68 66 64 64 63 63 63 63 63 63 63 63 63 63 63 63 63 63 63 -1 -1 -1 -1 -1 -1 -1 -1 -1 -1 -1 -1 -1 -1 -1 -1 -1 -1 -1 -1 -1 -1 -1 -1 -1 -1 -1 -1 -1 -1 -1 -1 -1 63 63 63 63 63 63 63 63 63 63 64 64 64 64 64 64 64 64 63 63 63 64 64 64 64 64 64 64 65 65 65 65 65 65 65 65 65 65 65 65 66 65 65 65 65 65 65 65 65 65 65 65 65 66 66 66 66 66 66 66 66 66 66 66 66 66 67 67 68 68 68 68 68 68 69 69 69 69 69 69 70 70 70 70 70 71 71 71 71 71 71 71 71 71 71 71 71 71 72 72 72 72 73 74 75 73 72 72 71 68 65 63 -1 -1 -1 -1 -1 -1 -1 -1 -1 -1 -1 -1 -1 63 63 63 63 63 63 63 63 63 63 63 63 63 63 63 63 63 63 63 63 63 63 -1 -1 85 87 88 88 -1
-1 -1 -1 -1 -1 -1 -1 -1 -1 -1 -1 -1 -1 -1 -1 -1 -1 -1 -1 63 64 64 66 66 66 66 66 66 65 64 64 64 64 64 64 64 64 64 64 64 65 66 67 67 67 67 67 67 66 66 66 65 64 64 63 63 63 63 63 63 63 63 63 63 63 63 63 63 63 63 63 -1 -1 -1 -1 -1 -1 -1 -1 -1 -1 -1 -1 -1 -1 -1 -1 -1 -1 -1 -1 -1 -1 -1 -1 -1 -1 -1 -1 -1 -1 -1 -1 -1 -1 63 63 63 63 63 63 63 63 63 63 63 63 63 63 63 63 63 63 63 64 64 64 64 64 64 64 64 64 64 64 64 65 65 65 65 65 65 65 65 65 65 65 65 65 65 65 65 65 65 65 65 65 66 66 66 66 66 66 66 66 66 66 66 66 67 67 67 68 68 68 68 69 69 69 69 69 69 70 70 70 70 70 70 71 71 71 71 71 71 71 71 71 71 71 72 72 72 72 72 73 74 75 72 72 71 69 67 64 63 -1 -1 -1 -1 -1 -1 -1 -1 -1 -1 -1 -1 63 63 63 63 63 63 63 63 63 -1 63 63 63 63 63 63 63 63 61 63 63 63 -1 -1 84 88 88 89 89 89
-1 -1 -1 -1 -1 -1 -1 -1 -1 -1 -1 -1 -1 -1 -1 -1 -1 -1 63 63 64 66 69 69 69 69 68 68 67 67 66 65 65 64 64 64 64 64 64 64 65 65 66 66 66 66 65 65 65 65 65 64 64 64 63 63 63 63 63 63 63 63 63 63 63 63 63 63 63 63 63 -1 -1 -1 -1 -1 -1 -1 -1 -1 -1 -1 -1 -1 -1 -1 -1 -1 -1 -1 -1 -1 -1 -1 -1 -1 -1 -1 -1 -1 -1 -1 -1 -1 -1 -1 63 63 63 63 63 63 63 63 63 63 63 63 63 63 63 63 63 63 63 64 64 64 64 64 64 64 64 64 64 64 64 64 64 64 65 65 65 65 65 65 65 65 65 65 64 65 65 65 65 65 65 65 65 66 66 66 66 66 66 65 65 66 66 66 67 67 67 68 68 68 68 69 69 69 69 69 69 70 70 70 70 70 70 71 71 71 71 71 71 71 71 71 71 72 72 72 72 72 73 74 74 72 71 70 68 65 64 63 -1 -1 -1 -1 -1 -1 -1 -1 -1 -1 -1 63 63 63 63 63 63 63 63 63 63 63 63 63 63 63 63 63 63 63 60 63 63 63 -1 -1 89 88 88 90 90 90
-1 -1 -1 -1 -1 -1 -1 -1 -1 -1 -1 -1 -1 -1 -1 -1 -1 63 63 64 65 68 71 71 71 71 71 70 70 69 69 67 66 65 65 64 64 64 64 64 64 65 65 65 65 65 64 64 64 64 64 64 64 64 63 63 63 63 63 63 63 63 63 63 63 64 64 64 64 64 64 63 -1 -1 -1 -1 -1 -1 -1 -1 -1 -1 -1 -1 -1 -1 -1 -1 -1 -1 -1 -1 -1 -1 -1 -1 -1 -1 -1 -1 -1 -1 -1 -1 -1 -1 -1 -1 63 63 63 63 63 63 63 63 63 63 63 63 63 63 63 63 63 63 63 63 63 64 64 64 64 64 64 64 64 64 64 64 64 64 64 64 64 64 64 64 64 64 64 65 65 64 65 65 65 65 65 65 65 65 66 65 65 65 65 65 66 66 66 67 67 67 68 68 68 69 69 69 69 69 69 69 70 70 70 70 70 70 71 71 71 71 71 71 71 71 71 72 72 72 72 73 74 74 74 72 70 68 65 64 63 63 -1 -1 -1 -1 -1 -1 -1 -1 -1 -1 63 63 63 63 63 63 63 63 63 63 63 63 63 63 63 63 63 63 63 63 60 63 63 -1 -1 89 90 90 90 90 90 90
-1 -1 -1 -1 -1 -1 -1 -1 -1 -1 -1 -1 -1 -1 -1 -1 63 63 63 64 67 70 73 73 73 74 74 74 73 73 72 70 68 67 65 65 65 65 64 64 64 64 64 64 64 64 64 64 64 64 64 64 64 63 63 63 63 63 63 63 63 63 63 63 64 64 64 64 64 64 64 63 63 -1 -1 -1 -1 -1 -1 -1 -1 -1 -1 -1 -1 -1 -1 -1 -1 -1 -1 -1 -1 -1 -1 -1 -1 -1 -1 -1 -1 -1 -1 -1 -1 -1 -1 -1 63 63 63 63 63 63 63 63 63 63 63 63 63 63 63 63 63 63 63 63 63 63 63 63 63 64 64 64 64 64 64 64 64 64 64 64 64 64 64 64 64 64 64 64 64 64 64 65 65 65 65 65 65 65 65 65 65 65 65 65 65 65 66 66 67 67 68 68 68 69 69 69 69 69 69 69 70 70 70 70 70 70 71 71 71 71 71 71 71 71 72 72 72 72 72 73 74 75 76 72 70 67 64 63 63 -1 -1 -1 -1 -1 -1 -1 -1 -1 -1 -1 63 63 62 62 63 63 63 63 63 64 63 64 63 63 63 63 63 63 63 63 63 63 89 89 90 90 90 90 90 91 91 90
-1 -1 -1 -1 -1 -1 -1 -1 -1 -1 -1 -1 -1 -1 -1 63 63 64 64 66 68 71 73 74 74 75 75 75 74 74 74 71 70 68 67 67 66 66 65 65 65 64 64 64 64 64 64 64 64 64 64 64 64 64 64 64 64 64 64 64 64 64 64 64 64 64 65 65 65 65 65 64 64 63 -1 -1 -1 -1 -1 -1 -1 -1 -1 -1 -1 -1 -1 -1 -1 -1 -1 -1 -1 -1 -1 -1 -1 -1 -1 -1 -1 -1 -1 -1 -1 -1 -1 -1 -1 -1 63 63 63 63 63 63 63 63 63 63 63 63 63 63 63 63 63 63 63 63 63 63 63 63 64 64 64 64 64 64 64 64 64 64 64 64 64 64 64 64 64 64 64 64 64 64 65 65 65 65 65 65 65 65 65 65 65 65 65 65 66 66 67 67 68 68 68 69 69 68 68 69 69 69 69 70 70 70 70 70 70 71 71 71 71 71 71 71 72 71 71 71 71 71 71 71 71 70 68 66 63 63 63 63 -1 -1 -1 -1 -1 -1 -1 -1 -1 63 62 -1 -1 -1 -1 62 63 63 63 64 64 64 63 63 63 63 63 63 63 63 63 63 89 89 90 90 90 90 90 91 91 91
