61 61 61 61 61 60 60 60 60 60 60 60 60 60 60 61 61 61 61 61 61 61 60 60 59 59 59 58 57 57 57 57 56 56 57 57 57 57 57 57 57 57 56 56 56 56 56 57 57 57 59 61 62 63 63 64 64 64 64 64 64 64 64 64 63 63 63 63 62 62 62 62 62 62 62 63 63 63 64 64 64 64 65 65 65 65 66 66 67 67 68 68 68 68 68 68 68 68 68 68 68 68 68 68 68 68 68 68 68 68 68 68 67 67 67 67 67 66 66 66 66 66 66 66 66 66 67 67 67 67 67 67 67 67 68 68 69 69 70 70 71 71 72 72 73 73 73 73 73 73 74 74 74 74 74 74 74 74 74 74 74 74 74 74 73 73 73 73 73 73 73 73 73 73 73 73 73 73 73 73 73 74 74 74 74 74 74 75 75 75 76 76 77 77 76 75 74 73 72 72 72 72 72 72 72 72 71 71 71 71 71 71 71 71 71 71 71 70 70 70 69 69 69 69 68 68 68 68 67 67 67 67 67 67 67 67 67 67 67 67 67 68 68 68 68 68 68 68 68 68 68 69 69 69 69 69
61 61 61 61 61 61 61 61 61 61 61 61 61 61 61 61 61 61 61 61 61 61 61 60 60 60 59 59 58 57 57 57 57 57 57 58 58 59 58 58 58 58 58 57 56 56 56 57 57 57 59 61 62 63 63 63 63 64 64 64 64 64 64 63 63 62 62 62 62 62 62 62 62 62 62 63 63 64 64 64 64 64 65 65 65 66 66 67 67 67 68 68 68 68 68 68 68 68 68 68 68 68 68 68 68 68 68 68 68 68 68 68 67 67 67 67 67 67 67 66 66 66 66 66 67 67 67 67 67 67 67 67 67 68 68 68 69 69 70 70 71 72 72 73 73 74 74 74 74 74 74 74 74 75 75 75 75 75 75 74 74 74 74 74 74 73 73 73 73 73 73 73 73 73 73 73 73 74 74 74 74 74 74 74 74 74 75 75 75 75 76 77 77 78 77 76 75 74 72 72 72 71 71 71 71 71 71 71 71 71 71 71 72 72 71 71 71 70 70 70 69 69 68 68 68 68 67 67 67 67 67 67 67 67 67 67 67 67 67 67 68 68 68 68 68 68 68 68 68 68 69 69 69 69 69 70
61 61 61 61 61 61 61 61 61 61 61 61 61 61 61 61 61 61 61 61 61 61 61 61 61 61 60 59 59 58 58 57 57 57 58 58 59 60 60 59 59 59 59 58 57 56 57 57 57 57 59 61 62 63 63 63 63 63 63 63 63 63 63 63 62 62 62 62 62 62 62 62 62 62 62 63 63 64 64 64 64 65 65 65 66 66 67 67 67 68 68 68 68 68 68 68 68 68 68 68 68 68 68 68 68 68 68 68 68 68 68 68 68 67 67 67 67 67 67 67 66 66 66 66 67 67 67 67 67 67 67 68 68 68 68 69 69 69 70 71 71 72 72 73 74 74 74 74 74 74 74 75 75 75 75 75 75 75 75 75 75 74 74 74 74 73 73 73 73 73 73 73 73 73 73 73 74 74 74 74 74 74 74 75 75 75 75 75 75 76 76 77 78 78 78 77 76 75 72 72 71 71 71 71 71 71 71 71 71 71 71 72 72 72 72 71 71 70 70 69 69 68 68 67 67 67 67 67 67 67 67 67 67 67 67 67 67 67 67 67 68 68 68 68 68 68 68 68 68 68 69 69 69 70 70 70
62 62 61 61 61 61 61 61 61 61 61 61 61 61 61 61 62 62 62 62 62 61 61 61 61 61 60 60 59 59 59 59 58 58 59 59 60 60 60 60 60 60 59 59 58 58 58 57 57 57 59 60 61 62 63 63 63 63 63 63 63 63 63 63 62 62 62 61 61 61 62 62 62 62 63 63 64 64 64 64 65 65 66 66 66 67 67 67 67 68 68 68 68 68 68 68 68 68 68 68 68 68 68 68 68 68 68 68 68 68 68 68 68 67 67 67 67 67 67 67 66 66 66 66 67 67 67 67 67 67 67 68 68 68 68 69 69 70 70 71 72 72 73 73 74 74 74 74 75 75 75 75 75 75 75 75 75 75 75 75 75 75 74 74 74 74 74 73 73 73 73 73 73 73 73 74 74 74 74 74 74 74 75 75 75 75 76 76 76 76 77 77 78 79 78 78 77 77 76 74 72 72 72 72 71 71 71 71 71 71 71 71 72 72 71 71 71 70 70 69 69 68 68 67 67 67 67 67 67 67 67 67 67 67 67 67 67 67 67 68 68 68 68 68 68 68 68 68 68 68 69 69 69 70 70 70
62 62 62 62 62 62 62 61 61 61 62 62 62 62 62 62 62 62 62 62 62 62 62 61 61 61 61 60 60 60 60 59 59 59 60 60 60 61 61 61 61 61 60 60 59 59 59 58 58 57 59 60 61 61 62 62 63 63 63 63 63 63 63 62 62 61 61 61 61 61 62 62 62 63 63 63 64 64 64 65 65 66 66 66 67 67 67 67 68 68 68 68 68 68 68 68 68 68 68 68 68 68 68 68 68 68 68 68 68 68 68 68 68 67 67 67 67 67 67 67 66 66 66 66 66 67 67 67 67 67 67 68 68 68 68 69 69 70 71 71 72 72 73 74 74 75 75 75 75 75 75 75 76 76 76 76 76 76 75 75 75 75 75 74 74 74 74 74 73 73 73 73 73 73 73 74 74 74 74 74 74 74 75 75 76 76 76 76 77 77 77 78 78 79 79 78 78 78 78 78 78 78 73 72 72 71 71 71 71 71 71 71 71 71 71 71 70 70 70 69 68 68 67 67 67 67 67 67 67 67 67 67 67 67 67 67 67 67 68 68 68 68 68 68 68 68 68 68 69 69 69 69 70 70 70 70
62 62 62 62 62 62 62 62 62 62 62 62 62 62 62 62 62 62 62 62 62 62 62 62 61 61 61 61 61 61 60 60 60 60 60 61 61 61 61 61 61 61 61 61 60 60 59 59 58 58 58 59 60 61 61 62 62 63 63 63 63 63 63 62 62 61 61 61 61 61 62 62 63 63 63 64 64 64 64 65 65 66 66 67 67 67 67 68 68 68 68 68 68 68 68 68 68 68 68 68 68 68 68 68 68 68 68 68 68 68 68 68 68 68 67 67 67 67 67 67 67 66 66 66 66 66 67 67 67 67 67 67 68 68 68 69 70 70 71 71 72 73 73 74 74 75 75 75 75 75 75 76 76 76 76 76 76 76 76 76 75 75 75 75 74 74 74 74 73 73 73 73 73 73 73 74 74 74 74 74 74 75 75 75 76 76 77 77 77 78 78 78 79 79 79 79 79 79 79 79 80 80 80 77 72 71 71 71 71 71 71 71 71 71 71 70 70 70 69 69 68 67 67 67 67 67 67 67 67 67 67 67 67 67 67 67 68 68 68 68 68 68 68 68 68 68 68 69 69 69 69 70 70 70 70 70
62 62 62 62 62 62 62 62 62 62 62 62 62 62 62 62 62 63 62 62 62 62 62 62 62 62 62 61 61 61 61 61 61 61 61 61 61 62 62 62 62 62 62 62 61 61 60 59 59 58 58 59 59 59 60 61 62 63 63 63 63 63 63 62 61 61 61 61 61 61 62 62 63 63 64 64 64 64 64 65 66 66 67 67 67 68 68 68 68 68 68 68 68 68 68 68 68 68 68 68 68 68 68 68 68 68 68 68 68 68 68 68 68 68 68 67 67 67 67 67 67 66 66 66 66 66 67 67 67 67 67 67 68 68 68 69 70 70 71 72 72 73 74 74 75 75 75 75 75 76 76 76 76 76 76 76 76 76 76 76 76 76 75 75 74 74 74 74 73 73 73 73 73 73 74 74 74 74 74 74 75 75 75 76 76 77 77 78 78 78 79 79 79 79 80 80 80 80 80 80 80 81 80 80 72 71 71 71 71 71 71 71 71 70 70 70 70 70 69 69 68 67 67 67 67 66 67 67 67 67 67 67 67 67 67 68 68 68 68 68 68 68 68 68 68 68 69 69 69 69 70 70 70 70 70 70
62 62 62 62 62 62 62 62 62 62 62 62 62 62 63 63 63 63 63 62 62 62 62 62 62 62 62 62 62 62 62 62 62 62 62 62 62 62 62 62 62 62 62 62 62 62 61 60 59 58 58 58 59 59 60 60 61 62 62 62 62 62 62 61 61 60 61 61 61 62 62 63 63 64 64 64 64 64 65 65 66 67 67 67 67 68 68 68 68 68 68 68 68 68 68 68 68 68 68 68 68 68 68 68 68 68 68 68 68 68 68 68 68 67 67 67 67 67 67 67 67 66 66 66 66 67 67 67 67 67 67 68 68 68 68 69 70 70 71 72 72 73 74 74 75 75 75 75 75 76 76 76 76 76 76 76 76 76 76 76 76 76 75 75 75 74 74 74 73 73 73 73 73 73 73 74 74 74 74 74 74 75 75 76 77 77 78 78 78 78 78 78 79 80 80 80 80 80 80 80 80 81 80 80 72 71 71 71 71 71 71 70 70 70 70 70 70 69 69 68 68 67 67 67 67 67 67 67 67 67 67 67 67 67 67 68 68 68 68 68 68 68 68 68 68 68 69 69 69 69 69 70 70 70 70 70
62 62 62 62 62 62 62 62 62 62 62 62 63 63 63 63 63 63 63 63 63 62 62 62 62 62 62 62 62 62 62 62 62 62 62 62 62 63 63 63 62 62 62 62 62 62 61 60 59 58 58 58 58 58 59 60 60 60 61 61 61 61 61 61 60 60 61 61 62 62 62 63 63 64 64 64 64 65 65 66 66 67 67 67 67 68 68 68 68 68 68 68 68 68 68 68 68 68 68 68 68 68 68 68 68 68 68 68 68 68 68 67 67 67 67 67 67 67 67 67 66 66 66 66 67 67 67 67 67 67 67 68 68 68 68 69 70 70 71 72 72 73 74 74 75 75 75 75 76 76 76 76 76 76 77 77 77 77 77 76 76 76 76 75 75 74 74 74 73 73 73 73 73 73 73 73 73 74 74 74 74 75 75 76 77 78 78 78 79 78 78 78 78 80 80 80 80 80 80 80 81 81 80 80 73 71 71 71 71 71 70 70 70 69 69 69 69 69 68 68 68 67 67 67 67 67 67 67 67 67 67 67 67 67 67 68 68 68 68 68 68 68 68 68 69 69 69 69 69 69 69 70 70 70 70 70
63 63 62 62 62 62 62 62 62 62 62 63 63 63 63 63 63 63 63 63 63 63 63 62 62 62 62 62 62 62 62 63 63 63 63 63 63 63 63 63 63 63 63 62 62 62 61 60 60 59 58 58 58 58 58 58 59 59 59 59 60 60 60 60 60 60 61 61 62 62 63 63 63 64 64 64 64 65 66 66 66 67 67 67 67 68 68 68 68 68 68 68 68 68 68 68 68 68 68 68 68 68 68 68 68 68 68 68 68 68 67 67 67 67 67 67 67 67 67 67 66 66 66 67 67 67 67 67 67 67 68 68 68 68 68 69 70 70 71 72 72 73 74 74 75 75 75 75 76 76 76 76 76 77 77 77 77 77 77 77 76 76 76 75 75 74 74 74 73 73 73 73 73 73 73 73 73 73 74 74 74 75 75 76 77 78 79 79 79 79 78 78 78 78 80 80 80 80 80 81 81 81 81 80 76 72 71 71 71 70 70 70 69 69 69 69 68 68 68 68 67 67 67 67 67 67 67 67 67 67 67 67 67 67 67 67 68 68 68 68 68 68 68 69 69 69 69 69 69 69 69 70 70 70 70 70
63 63 63 63 62 62 62 62 62 62 63 63 63 63 63 63 63 63 63 63 63 63 63 63 63 62 62 63 63 63 63 63 63 63 63 63 63 64 63 63 63 63 63 63 62 62 62 61 60 59 58 58 58 57 57 57 57 57 57 58 58 59 59 59 59 60 61 61 62 63 63 63 64 64 64 64 65 66 66 66 67 67 67 67 67 68 68 68 68 68 68 68 68 68 68 68 68 68 68 68 68 68 68 68 68 68 68 68 68 68 67 67 67 67 67 67 67 67 67 67 66 66 66 67 67 67 67 67 67 68 68 68 68 68 68 69 70 70 71 72 72 73 74 74 75 75 75 75 76 76 76 76 76 77 77 77 77 77 77 77 76 76 76 75 75 74 74 73 73 73 73 73 73 73 73 73 73 73 73 74 74 75 76 77 78 79 79 79 79 79 78 78 77 81 81 81 80 80 81 81 81 81 81 80 77 72 72 71 71 70 70 69 69 68 68 68 68 68 67 67 67 67 67 67 67 67 67 67 67 67 67 67 67 67 67 67 68 68 68 68 68 68 68 69 69 69 69 69 69 69 69 70 70 70 70 70
63 63 63 63 63 63 63 63 63 62 63 63 63 63 63 63 63 63 63 63 63 63 63 63 63 63 63 63 63 63 63 63 63 64 64 64 64 64 64 63 63 63 63 63 63 62 62 61 60 59 59 58 58 57 57 57 57 57 57 57 58 58 59 59 59 60 61 62 62 63 63 63 64 64 64 64 65 66 66 66 67 67 67 67 67 67 67 68 68 68 68 68 68 68 68 68 68 68 68 68 68 68 68 68 68 68 68 68 68 67 67 67 67 67 67 67 67 67 67 67 66 66 66 67 67 67 67 67 67 68 68 68 68 68 69 69 70 70 71 72 72 73 74 74 74 75 75 75 76 76 76 76 76 77 77 77 77 77 77 77 76 76 76 75 75 74 74 73 73 73 73 73 73 73 73 73 74 74 74 75 75 75 76 77 78 79 79 79 79 80 80 78 77 81 81 81 80 80 81 81 81 81 80 80 78 75 72 72 71 71 70 69 69 68 68 68 67 67 67 67 67 67 67 67 67 67 67 67 67 67 67 67 67 67 67 67 68 68 68 68 68 68 69 69 69 69 69 69 69 69 69 70 70 70 70 70
63 63 63 63 63 63 63 63 63 63 63 63 63 63 63 63 63 63 63 63 63 63 63 63 63 63 63 63 63 62 62 63 64 64 64 64 64 64 64 64 63 63 63 63 63 63 62 61 60 59 59 58 58 57 57 57 56 56 57 57 57 58 58 59 59 60 61 62 62 63 63 63 64 64 64 64 65 66 66 66 67 67 67 67 67 67 67 67 67 67 67 68 68 68 68 68 68 68 68 68 68 68 68 68 68 68 68 68 67 67 67 67 67 67 67 67 67 67 67 66 66 66 67 67 67 67 67 67 67 68 68 68 68 68 69 69 70 70 71 72 72 73 74 74 74 75 75 75 75 76 76 76 76 77 77 77 77 77 77 76 76 76 75 75 75 74 74 74 73 73 73 73 73 73 73 74 74 74 75 75 76 76 77 78 78 79 79 80 80 80 80 80 77 81 81 81 80 80 80 81 81 81 80 80 79 77 75 72 72 71 70 69 68 67 67 67 67 67 67 67 67 67 67 67 67 67 67 67 67 67 67 67 67 67 67 68 68 68 68 68 68 68 69 69 69 69 69 69 69 69 69 69 70 70 70 70
63 63 63 63 63 63 63 63 63 63 63 63 63 63 63 63 63 63 63 63 63 63 63 63 63 63 63 63 63 62 62 62 63 63 64 64 64 64 64 64 64 63 63 63 63 63 62 61 60 59 59 58 57 57 57 56 56 56 56 57 57 58 58 59 59 60 61 62 62 63 63 63 64 64 64 64 65 66 66 66 67 67 67 67 67 67 67 67 67 67 67 67 67 68 68 68 68 68 68 68 68 68 68 68 68 68 68 68 67 67 67 67 67 67 67 67 67 67 66 66 66 66 67 67 67 67 67 67 67 68 68 68 68 68 69 69 70 70 71 72 72 73 74 74 74 75 75 75 75 76 76 76 76 77 77 77 77 77 76 76 76 76 75 75 74 74 74 74 73 73 73 73 73 73 74 74 75 75 76 76 76 77 77 78 79 80 80 80 80 80 80 80 80 81 81 77 80 80 80 81 81 81 80 80 79 78 77 75 72 71 70 69 68 67 67 67 67 67 67 67 67 67 67 67 67 67 67 67 67 67 67 67 67 67 67 68 68 68 68 68 68 69 69 69 69 69 69 69 69 69 69 69 70 70 70 70
63 63 63 63 63 63 63 63 63 63 63 63 63 63 63 63 63 63 63 63 63 63 63 63 63 63 63 63 63 63 62 63 63 63 64 64 64 65 64 64 64 64 63 63 63 63 62 61 60 59 59 58 57 57 56 56 56 56 56 56 57 57 58 59 59 60 61 62 62 63 63 63 64 64 64 64 65 66 66 66 67 67 67 67 67 67 67 67 67 67 67 67 67 67 68 68 68 68 68 68 68 68 68 68 68 68 68 68 67 67 67 67 67 67 67 67 67 66 66 66 66 67 67 67 67 67 65 64 65 68 68 68 68 68 69 70 70 71 71 72 73 73 74 74 74 75 75 75 75 76 76 76 76 76 77 77 77 77 76 76 76 75 75 75 74 74 74 74 73 73 73 73 73 73 74 75 75 76 76 77 77 77 78 79 79 80 80 80 80 80 80 80 80 81 81 77 80 80 80 80 80 81 80 80 79 79 78 76 74 72 71 69 68 67 67 67 66 66 66 67 67 67 67 67 67 64 64 67 67 67 67 67 67 67 67 68 68 68 68 68 68 69 69 69 69 69 69 69 69 69 69 69 70 70 70 70
63 63 63 63 63 63 63 63 63 63 63 63 63 63 63 63 63 63 63 63 63 63 63 63 63 63 63 63 63 63 64 63 63 63 64 64 64 65 64 64 64 64 63 63 63 63 62 62 61 60 60 59 58 57 57 56 56 56 56 57 57 58 58 59 59 60 61 62 63 63 63 64 64 64 64 65 65 66 66 66 66 67 67 67 67 67 67 67 67 67 67 67 67 67 67 68 68 68 68 68 68 68 68 68 68 68 68 67 67 67 67 67 67 67 67 67 66 66 66 67 67 67 67 67 67 67 64 64 64 65 65 65 64 69 69 70 70 71 71 72 72 73 73 74 74 75 75 75 75 76 76 76 76 76 76 76 76 76 76 76 75 75 75 75 74 74 74 74 73 73 73 73 73 74 74 75 75 76 77 77 77 78 78 79 79 80 80 80 80 80 80 80 80 80 80 80 76 80 80 80 80 80 80 79 79 78 77 75 72 70 69 68 67 66 66 66 66 66 66 66 66 66 66 67 63 62 62 67 67 67 67 67 67 67 67 67 68 68 68 68 68 69 69 69 69 69 69 69 69 69 69 69 70 70 70 70
63 63 63 63 63 63 63 63 63 63 63 63 63 63 63 63 63 63 63 63 63 63 63 63 63 63 63 64 64 64 64 64 64 64 64 64 64 64 64 64 64 64 64 63 63 63 63 62 62 61 60 60 59 58 57 57 56 56 57 57 58 58 59 59 60 60 61 62 63 63 63 64 64 64 64 65 65 66 66 66 66 66 67 67 67 67 67 67 67 67 67 67 67 67 67 67 68 68 68 68 68 68 68 68 68 68 68 67 67 67 67 67 67 67 66 66 66 66 66 67 67 67 67 67 67 67 64 63 64 65 64 64 64 63 69 70 70 71 71 72 72 73 73 74 74 75 75 75 75 76 76 76 76 76 76 76 76 76 76 76 75 75 75 74 74 74 74 74 73 73 73 74 74 74 74 75 76 76 77 77 78 78 79 79 80 80 80 80 80 80 80 80 80 80 80 80 80 80 80 80 80 80 79 79 79 78 76 73 71 69 68 67 66 66 66 66 66 66 66 66 66 66 66 66 62 61 61 67 67 67 67 67 67 67 67 67 68 68 68 68 68 69 69 69 69 69 69 69 69 69 69 70 70 70 70 70
63 63 63 63 63 63 63 63 63 63 63 63 63 63 63 63 63 63 63 63 63 63 63 63 63 63 64 64 64 64 64 64 64 64 64 64 64 64 64 64 64 64 64 63 63 63 63 62 62 62 61 60 59 58 58 57 57 56 57 57 58 58 59 59 60 60 61 62 63 63 63 64 64 64 64 65 65 66 66 66 66 66 66 66 66 66 66 66 67 67 67 67 67 67 67 67 68 68 68 68 68 68 68 68 68 68 67 67 67 67 67 67 67 66 66 66 66 66 67 67 67 67 67 67 67 67 64 63 63 65 65 64 64 64 69 70 70 70 71 72 72 73 73 74 74 74 75 75 75 76 76 76 76 76 76 76 76 76 76 75 75 75 74 74 74 74 74 74 74 73 74 74 74 74 75 75 76 77 77 78 78 79 79 79 80 80 80 80 80 80 80 80 80 80 80 80 80 80 80 80 80 80 79 79 78 78 75 72 70 67 67 66 66 65 65 65 65 65 66 66 66 66 66 66 62 60 60 66 67 67 67 67 67 67 67 67 68 68 68 68 68 69 69 69 69 69 69 69 69 69 70 70 70 70 70 70
63 63 63 63 63 63 63 63 63 63 63 63 63 63 63 63 63 63 63 63 64 64 64 64 64 64 64 64 64 64 64 64 64 64 64 64 64 64 64 64 64 64 64 63 63 63 63 63 63 62 62 61 60 58 58 58 57 57 57 58 58 59 59 60 60 60 61 62 63 63 63 64 64 64 64 65 65 66 66 66 66 66 66 66 66 66 66 66 66 66 66 67 67 67 67 67 67 68 68 68 68 68 68 68 68 68 67 67 67 67 67 67 66 66 66 66 66 66 67 67 67 67 67 67 66 65 64 63 63 65 66 69 69 69 70 70 70 70 71 71 72 73 73 73 74 74 75 75 75 76 76 76 76 76 76 76 76 76 75 75 75 74 74 74 74 74 74 74 74 74 74 74 74 74 75 75 76 77 78 78 79 79 79 80 80 80 80 80 80 80 80 80 80 80 80 80 80 80 80 80 79 79 79 79 78 78 74 71 69 66 65 65 65 64 64 65 65 65 65 66 66 66 66 66 66 66 66 66 66 66 67 67 67 67 67 67 68 68 68 68 68 69 69 69 69 69 69 69 69 70 70 70 70 70 70 70
64 63 63 63 63 63 63 63 63 63 63 63 63 63 63 63 63 63 64 64 64 64 64 64 64 64 64 64 64 64 64 64 64 64 64 64 64 64 64 64 64 64 64 64 63 63 63 63 63 63 62 61 61 60 59 59 58 58 58 58 59 59 60 60 61 61 62 62 63 63 64 64 64 64 64 65 65 66 66 66 66 66 66 66 66 66 66 66 66 66 66 66 66 67 67 67 67 67 67 67 67 67 67 67 67 67 67 67 67 67 67 66 66 66 66 66 66 67 67 67 67 67 67 67 66 65 64 63 64 65 66 69 69 69 70 70 70 70 71 71 72 72 73 73 73 74 74 75 75 75 76 76 76 76 76 76 76 75 75 75 75 74 74 74 74 74 74 74 74 74 74 74 75 75 75 76 77 77 78 79 79 79 80 80 80 80 80 80 80 80 80 80 80 80 80 80 80 80 79 79 79 79 79 78 78 78 74 71 69 66 65 65 64 64 64 64 64 65 65 65 66 66 66 66 66 66 66 66 66 66 67 67 67 67 94 67 94 94 68 94 94 69 94 94 69 94 94 69 69 70 70 70 70 70 70 70
64 64 64 63 63 63 63 63 63 63 63 63 63 63 63 63 63 64 64 64 64 64 64 64 64 64 64 64 64 64 64 64 64 61 61 64 64 64 64 64 64 64 64 64 63 63 63 63 63 63 62 62 61 61 60 60 59 59 59 59 59 60 60 61 61 62 62 63 63 63 64 64 64 64 64 65 65 65 66 66 66 66 66 66 66 66 66 66 66 66 66 66 66 66 67 67 67 67 67 67 67 67 67 67 67 67 67 67 67 66 66 66 66 66 66 66 67 67 67 67 67 67 67 67 66 65 64 64 64 65 69 69 69 70 70 70 70 70 71 71 72 72 72 73 73 74 74 74 75 75 75 75 76 76 76 75 75 75 75 75 74 74 74 74 74 74 74 74 75 75 75 75 75 76 76 77 77 78 78 79 79 80 80 80 80 81 80 80 80 80 80 80 80 80 80 79 76 79 79 79 79 79 79 78 78 77 74 71 69 65 65 65 64 64 64 64 64 64 65 65 65 66 66 66 66 66 66 66 66 66 67 67 67 94 67 68 68 80 80 80 69 69 69 80 69 69 69 69 69 70 70 70 70 70 70 70
64 64 64 64 63 63 63 63 63 63 63 63 63 63 63 63 63 64 64 64 64 64 64 64 64 64 64 64 64 64 64 64 60 60 60 61 61 61 61 64 64 64 64 64 64 63 63 63 63 63 63 62 62 62 61 61 60 59 59 60 60 60 61 61 62 62 63 63 63 63 64 64 64 64 64 65 65 65 65 66 66 66 66 66 66 66 66 66 66 66 66 66 66 66 66 67 67 67 67 67 67 67 67 67 67 67 67 67 66 66 66 66 66 66 66 67 67 67 67 67 67 67 68 68 68 68 67 65 67 69 69 69 69 70 70 70 70 70 71 71 71 72 72 72 73 73 74 74 74 75 75 75 75 76 75 75 75 75 74 74 74 74 74 74 74 74 75 75 75 76 76 76 76 77 77 77 78 78 79 79 80 80 80 81 81 81 81 80 80 80 80 80 80 79 79 79 79 79 79 79 79 79 78 78 78 77 74 71 68 65 65 64 64 64 64 64 64 64 64 65 65 65 66 66 66 66 66 66 66 66 67 67 67 67 67 80 68 68 68 68 69 80 69 69 69 69 69 69 68 69 70 70 70 70 70 70
64 64 64 64 64 63 63 63 63 63 63 63 63 63 63 63 64 64 64 64 64 64 64 64 64 64 64 64 64 64 64 60 60 60 60 60 61 61 61 64 64 64 64 64 64 64 63 63 63 63 63 63 63 62 62 61 61 60 60 60 60 60 61 62 62 63 63 63 63 63 64 64 64 64 64 65 65 65 65 65 65 66 66 66 66 66 66 66 66 66 66 66 66 66 66 66 66 66 66 66 66 66 66 66 66 66 66 66 66 66 66 66 66 66 66 67 67 67 67 67 68 68 68 68 68 68 68 68 69 69 69 69 70 70 70 70 70 70 71 71 71 72 72 72 72 73 73 74 74 75 75 75 75 75 75 75 75 74 74 74 74 74 74 74 74 74 75 75 76 76 77 77 77 78 78 78 78 79 79 80 80 81 81 81 81 81 81 81 80 80 80 80 79 79 79 76 76 79 79 79 79 79 78 78 78 77 74 71 68 65 65 64 64 64 64 64 64 64 64 64 65 65 65 66 66 66 66 66 66 66 67 67 67 94 68 68 80 68 68 68 69 69 69 69 69 80 69 69 68 69 70 70 70 70 70 70
64 64 64 64 64 64 64 64 63 63 63 63 63 63 63 64 64 64 64 64 64 64 64 64 64 64 64 64 64 64 64 61 60 60 60 60 61 61 61 64 64 64 64 64 64 64 64 63 63 63 63 63 63 63 62 62 61 61 61 61 61 61 62 62 63 63 63 63 63 63 64 64 64 64 64 65 65 65 65 65 65 65 65 65 66 66 66 66 66 66 66 66 66 66 66 66 66 66 66 66 66 66 66 66 66 66 66 66 66 66 66 66 66 66 66 66 67 67 67 67 67 68 68 68 68 68 68 69 69 69 69 69 70 70 70 70 70 71 71 71 71 71 72 72 72 72 73 73 74 74 74 74 75 75 75 75 75 74 74 74 74 74 74 74 75 75 75 76 76 77 77 77 78 78 78 78 79 79 79 80 80 81 81 81 81 81 81 81 80 80 80 80 79 79 79 79 76 79 79 79 79 79 78 78 78 77 73 71 68 65 65 64 64 64 64 64 64 64 64 64 64 65 65 65 66 66 66 66 66 66 67 67 67 94 68 80 80 68 68 68 68 80 69 80 69 76 69 69 69 69 70 70 70 70 70 70
64 64 64 64 64 64 64 64 64 64 64 64 64 64 64 64 64 64 64 64 64 64 64 64 64 64 64 64 64 64 64 64 61 60 61 64 61 60 60 64 64 64 64 64 64 64 64 64 63 63 63 63 63 63 62 62 62 62 62 62 62 62 62 63 63 63 63 63 63 63 64 64 64 64 64 65 65 65 65 65 65 65 65 65 65 65 66 66 66 66 66 66 66 66 66 66 66 66 66 66 66 66 66 66 66 66 66 66 66 66 66 66 66 66 66 66 66 67 67 67 67 68 68 68 68 68 69 69 69 69 69 69 70 70 70 70 70 71 71 71 71 71 71 72 72 72 72 73 73 74 74 74 74 74 74 74 74 73 73 74 74 74 74 75 75 75 76 76 77 77 77 78 78 78 78 79 79 79 80 80 81 81 81 81 81 82 81 81 80 80 80 80 79 79 79 76 76 76 79 79 79 78 78 77 77 76 73 71 68 65 65 64 64 64 64 64 64 64 64 64 64 64 65 65 65 66 66 66 66 66 67 67 67 67 68 80 68 79 79 79 68 80 79 79 69 69 79 69 69 69 69 70 70 70 70 70
64 64 64 64 64 64 64 64 64 64 64 64 64 64 64 64 64 64 64 64 64 64 64 64 64 64 64 64 64 64 64 64 64 64 64 64 61 60 60 64 64 64 64 64 64 64 64 64 64 63 63 63 63 63 63 63 62 62 62 62 62 63 63 63 63 63 63 63 63 64 64 64 64 64 64 64 65 65 65 65 65 65 65 65 65 65 65 66 66 66 66 66 66 66 66 66 66 66 65 65 65 65 65 65 65 65 65 65 65 66 66 66 66 66 66 66 66 66 67 67 67 68 68 68 68 69 69 69 69 69 69 69 69 69 70 70 70 71 71 71 71 71 71 72 72 72 72 72 73 73 73 73 73 74 73 73 73 73 73 73 74 74 74 75 75 76 76 77 77 78 78 78 78 78 79 79 79 79 80 80 81 81 81 81 82 82 81 81 80 80 80 80 79 79 79 79 76 76 79 78 78 78 78 77 76 76 73 70 68 66 65 64 64 64 64 64 64 64 64 64 64 64 64 65 65 65 66 66 66 66 67 67 67 94 79 68 68 80 80 80 68 67 68 80 69 77 69 79 69 69 69 69 70 70 70 70
64 64 64 64 64 64 64 64 64 64 64 64 64 64 64 64 64 64 64 64 64 64 64 64 64 64 64 64 64 64 64 64 64 64 64 64 64 60 61 64 64 64 64 64 64 64 64 64 64 63 63 63 63 63 63 63 63 63 63 63 63 63 63 63 63 63 63 63 64 64 64 64 64 64 64 64 64 65 65 65 65 65 65 65 65 65 65 65 65 66 65 65 65 65 65 65 65 65 65 65 65 65 65 65 65 65 65 65 65 65 66 66 66 66 66 66 66 66 67 67 67 68 68 68 69 69 69 69 69 69 69 70 70 69 70 70 70 71 71 71 71 71 71 71 72 72 72 72 72 72 72 73 73 73 73 73 73 72 73 73 73 74 74 75 76 77 77 77 78 78 78 78 78 79 79 79 79 79 80 80 81 81 82 82 82 82 81 81 81 80 80 80 79 79 79 79 76 76 76 77 78 78 77 77 76 76 73 70 68 66 65 64 64 64 64 64 64 64 64 64 64 64 64 64 65 65 65 66 66 66 67 67 67 94 68 68 68 80 68 80 80 68 80 80 68 68 69 69 69 69 69 69 69 70 70 70
64 64 64 64 64 64 64 64 64 64 64 64 64 64 64 64 64 64 64 64 64 64 64 64 64 64 64 64 64 64 64 64 64 64 64 64 64 61 61 64 64 64 64 64 64 64 64 64 64 64 63 63 63 63 63 63 63 63 63 63 63 63 63 63 63 63 63 64 64 64 64 64 64 64 64 64 64 64 64 65 65 65 65 65 65 65 65 65 65 65 65 65 65 65 65 65 65 65 65 65 65 64 64 64 64 64 65 65 65 65 65 65 66 66 66 66 66 66 67 67 68 68 68 68 69 69 69 69 69 69 69 70 70 69 70 70 70 70 71 71 71 71 71 71 71 72 72 72 72 72 72 72 72 73 73 73 72 72 73 73 74 74 75 75 76 77 77 77 78 78 78 78 79 79 79 79 79 79 80 80 81 81 81 81 81 81 81 81 80 80 79 79 79 78 78 78 78 77 77 77 77 77 77 77 76 76 73 70 67 65 64 64 64 64 64 64 64 64 64 64 64 64 64 64 65 65 65 65 66 66 66 67 67 67 67 79 68 79 79 79 68 79 79 79 68 79 79 69 69 69 69 69 69 69 69 70
64 64 64 64 64 64 64 64 64 64 64 64 64 64 64 64 64 64 64 64 64 64 64 64 64 64 64 64 64 64 64 64 64 62 62 61 61 61 61 64 64 64 64 64 64 64 64 64 64 64 64 64 63 63 63 63 63 63 63 63 63 64 64 64 64 64 64 64 64 64 64 64 64 64 64 64 64 64 64 64 64 65 65 65 65 65 65 65 65 65 65 65 65 65 65 65 65 64 64 64 64 64 64 64 64 64 64 64 65 65 65 65 66 66 66 66 66 67 67 67 68 68 68 68 69 69 69 69 69 69 69 70 70 70 70 70 70 70 70 70 71 71 71 71 71 71 72 72 72 72 72 72 72 72 72 72 72 72 73 74 74 75 75 76 76 77 77 78 78 78 78 78 79 79 79 79 79 79 80 80 81 81 81 81 81 81 80 80 80 79 79 79 78 78 78 77 77 77 77 77 77 77 77 76 76 76 73 70 67 64 64 64 64 64 64 64 64 64 64 64 64 64 64 64 64 64 65 65 66 66 66 67 67 94 67 66 67 67 68 67 68 68 68 68 68 68 68 69 69 69 69 69 69 69 69 69
64 64 64 64 64 64 64 64 64 64 64 64 64 64 64 64 64 64 64 64 64 64 64 64 64 64 64 64 64 64 64 64 64 62 62 62 61 60 61 61 64 64 64 64 64 64 64 64 64 64 64 64 64 64 64 64 64 63 64 64 64 64 64 64 64 64 64 64 64 64 64 64 64 64 64 64 64 64 64 64 64 64 65 65 65 65 65 65 65 65 65 65 65 65 64 64 64 64 64 64 64 64 64 64 64 64 64 64 64 64 65 65 65 66 66 66 67 67 67 67 68 68 68 69 69 69 69 69 69 69 69 70 70 70 70 70 70 70 70 70 70 70 71 71 71 71 71 72 72 72 72 72 72 72 72 72 72 72 73 74 74 75 76 76 77 76 76 76 76 76 76 79 79 79 79 79 79 79 80 80 80 81 81 81 81 81 80 80 79 79 79 78 78 77 77 77 77 76 76 76 76 76 76 76 76 76 72 69 66 64 64 64 64 64 64 64 64 64 64 64 64 64 64 64 64 64 65 65 65 66 66 66 67 67 94 67 94 94 68 94 94 68 94 94 68 94 94 69 68 69 69 69 69 69 69 69
64 64 64 64 64 64 64 64 64 64 64 64 64 64 64 64 64 63 64 64 64 64 64 64 64 64 64 64 64 64 64 64 64 64 64 62 61 60 61 61 64 64 64 64 64 64 64 64 64 64 64 64 64 64 64 64 64 64 64 64 64 64 64 64 64 64 64 64 64 64 64 64 64 64 64 64 64 64 64 64 64 64 64 65 65 65 65 65 65 65 65 64 64 64 64 64 64 64 64 64 64 64 64 64 64 64 64 64 64 64 64 65 65 66 66 66 67 67 67 68 68 68 68 69 69 69 69 69 69 69 69 70 70 70 70 70 70 70 70 70 70 70 71 71 71 71 71 71 72 72 72 72 72 72 72 72 72 72 73 74 75 76 76 77 76 76 75 75 75 75 76 79 79 79 79 79 79 79 79 80 80 81 80 80 80 80 80 79 79 79 78 78 77 77 76 76 76 76 76 76 76 76 76 76 76 76 72 69 65 64 64 64 64 64 64 64 64 64 64 64 64 64 64 64 64 64 64 65 65 66 66 66 67 67 67 67 67 67 67 68 68 68 68 68 68 68 68 68 68 69 69 69 69 69 69 69
64 64 64 64 64 64 64 64 64 64 64 64 64 64 64 64 64 64 64 64 64 64 64 64 64 64 64 64 64 64 64 64 64 64 64 64 61 61 61 64 64 64 64 64 64 64 64 64 64 64 64 64 64 64 64 64 64 64 64 64 64 64 64 64 64 64 64 64 64 64 64 64 64 64 64 64 64 64 64 64 64 64 64 64 64 65 65 65 65 65 64 64 64 64 64 64 64 64 64 64 64 64 64 64 64 64 64 64 64 64 64 65 65 66 66 66 67 67 67 67 68 68 68 69 69 69 69 69 69 69 69 70 70 70 70 70 70 70 70 70 70 70 70 71 71 71 71 71 72 72 72 72 72 72 72 72 72 72 73 74 75 76 77 77 76 75 75 75 75 75 75 76 79 79 79 79 79 79 79 80 80 80 80 80 80 80 79 79 79 78 78 77 77 76 76 76 76 76 76 76 76 76 76 76 76 76 73 70 66 64 64 64 64 64 64 64 64 64 64 64 64 64 64 64 64 64 64 64 65 65 66 66 66 67 67 67 67 67 67 67 67 68 68 68 68 68 68 68 69 69 69 69 69 69 69 69
64 64 64 64 64 64 64 64 64 64 64 64 64 64 64 64 64 64 64 64 64 64 64 64 64 64 64 64 64 64 64 64 64 64 64 64 64 64 64 64 64 64 64 64 64 64 64 64 64 64 64 64 64 64 64 64 64 64 64 64 64 64 64 64 64 64 64 64 64 64 64 64 64 64 64 64 64 64 64 64 64 64 64 64 64 64 64 64 64 64 64 64 64 64 64 64 64 64 64 64 64 64 64 64 64 64 64 64 64 64 64 65 65 65 66 66 66 67 67 67 68 68 68 68 69 69 69 69 69 69 69 69 70 70 70 70 70 70 70 70 70 70 70 71 71 71 71 71 71 72 72 72 72 72 72 72 72 73 74 75 76 77 77 77 76 75 75 75 75 75 75 76 79 79 79 79 79 79 79 79 80 80 80 80 79 79 79 79 78 78 77 77 76 76 76 76 76 75 76 76 76 76 76 76 76 76 74 71 68 65 65 64 64 64 64 64 64 64 64 64 64 64 64 64 64 64 64 64 65 65 65 66 66 66 67 67 67 67 67 67 67 67 68 68 68 68 68 68 68 69 69 69 69 69 69 69
64 64 64 64 64 64 64 64 64 64 64 64 64 64 64 64 64 64 64 64 64 64 64 64 64 64 64 64 64 64 64 64 64 64 64 64 64 64 64 64 64 64 64 64 64 64 64 64 64 64 64 64 64 64 64 64 64 64 64 64 64 64 64 64 64 64 64 64 64 64 64 64 64 64 64 64 64 64 64 64 64 64 64 64 64 64 64 64 64 64 64 64 64 64 64 64 64 64 64 64 64 64 64 64 64 64 64 64 64 64 64 64 65 65 66 66 66 67 67 67 68 68 68 68 69 69 69 69 69 69 69 69 70 70 70 70 70 70 70 70 70 70 70 71 71 71 71 71 71 72 72 72 72 72 72 72 73 73 74 75 76 77 77 76 76 75 75 75 75 75 75 76 78 78 79 79 79 79 79 79 79 80 79 79 79 79 79 78 78 78 77 77 76 76 76 76 75 75 75 75 75 76 76 76 76 76 74 71 69 67 67 66 65 64 64 64 64 64 64 64 64 64 64 64 64 64 64 64 61 65 65 65 66 66 66 66 67 67 67 67 67 67 67 68 68 68 68 68 68 69 69 69 69 69 69 69
64 63 63 63 64 64 64 64 64 64 64 64 64 64 64 64 64 64 64 64 63 63 64 64 64 64 64 64 64 64 64 64 64 64 64 64 64 64 64 64 64 64 64 64 64 64 64 64 64 64 64 64 64 64 64 64 64 64 64 64 64 64 64 64 64 64 64 64 64 64 64 64 64 64 64 64 64 64 64 64 64 64 64 64 64 64 64 64 64 64 64 64 64 64 64 64 64 64 64 64 64 64 64 64 64 64 64 64 64 64 64 64 65 65 65 66 66 67 67 67 67 68 68 68 69 69 69 69 69 69 69 69 69 70 70 70 70 70 70 70 70 70 70 71 71 71 71 71 71 72 72 72 72 72 72 72 73 73 74 75 77 76 76 76 76 75 75 75 75 75 75 76 78 78 78 79 79 79 79 79 79 79 79 79 79 79 78 78 78 77 77 76 76 76 76 75 75 75 75 75 75 75 76 76 76 76 75 72 70 69 68 67 66 65 65 64 64 64 64 64 64 64 64 64 64 64 64 64 64 64 65 65 66 66 66 66 66 67 67 67 67 67 67 67 68 68 68 68 68 69 69 69 69 69 69 69
62 62 62 62 62 63 64 64 64 64 64 64 64 64 64 64 64 64 64 64 64 64 64 64 64 64 64 64 64 64 64 64 64 64 64 64 64 64 64 64 64 64 64 64 64 64 64 64 64 64 64 64 64 64 64 64 64 64 64 64 64 64 64 64 64 64 64 64 64 64 64 64 64 64 64 64 64 64 64 64 64 64 64 64 64 64 64 64 64 64 64 64 64 64 64 64 64 64 64 64 64 64 64 64 64 64 64 64 64 64 64 64 65 65 65 66 66 67 67 67 67 68 68 68 68 69 69 69 69 69 69 69 69 69 70 70 70 70 70 70 70 70 70 71 71 71 71 71 71 71 72 72 72 72 72 72 73 73 74 75 76 76 76 76 76 76 75 75 75 75 76 76 78 78 78 78 78 79 79 79 79 79 79 79 79 79 78 78 78 77 77 77 76 76 76 76 75 75 75 75 75 75 76 76 76 76 75 74 72 70 70 70 69 68 67 65 64 64 64 64 64 64 64 64 64 64 64 64 64 65 65 65 64 66 66 66 66 65 65 65 65 65 65 65 67 67 68 68 68 68 68 69 69 69 69 69
62 62 62 62 62 62 63 64 64 64 64 64 64 64 64 64 64 64 64 64 64 64 64 64 64 64 64 64 64 64 64 64 64 64 64 64 64 64 64 64 64 64 64 64 64 64 64 64 64 64 64 64 64 64 64 64 64 64 64 64 64 64 64 64 64 64 64 64 64 64 64 64 64 64 64 64 64 64 64 64 64 64 64 64 64 64 64 64 64 64 64 64 64 64 64 64 64 64 64 64 64 64 64 64 64 64 64 64 64 64 64 64 65 65 65 66 66 67 67 67 67 67 68 68 68 68 69 69 69 69 69 69 69 69 69 69 69 69 70 70 70 70 70 71 71 71 71 71 71 71 72 72 72 72 72 72 72 73 74 75 76 76 76 77 78 76 76 76 76 76 76 78 78 78 78 78 78 78 78 78 78 79 79 79 79 79 78 78 78 78 77 77 77 76 76 76 76 75 75 75 75 75 76 76 76 76 76 75 74 72 72 72 72 71 69 67 65 64 64 64 64 64 64 64 64 64 64 64 64 65 65 65 64 66 65 66 65 67 67 67 67 67 67 67 65 67 68 65 68 68 68 68 69 69 69 69
61 61 62 62 62 63 63 64 64 64 64 64 64 64 64 64 64 64 64 64 64 64 64 64 64 64 64 64 64 64 64 64 64 64 64 64 64 64 64 64 64 64 64 64 64 64 64 64 64 64 64 64 64 64 64 64 64 64 64 64 64 64 64 64 64 64 64 64 64 64 64 64 64 64 64 64 64 64 64 64 64 64 64 64 64 64 64 64 64 64 64 64 64 64 64 64 64 64 64 64 64 64 64 64 64 64 64 64 64 64 64 64 65 65 65 66 66 67 67 67 67 67 68 68 68 68 68 69 69 69 69 69 69 69 69 69 69 69 70 70 70 70 70 71 71 71 71 71 71 71 71 72 72 72 72 72 72 73 74 75 76 76 76 77 77 78 77 77 77 77 77 77 77 77 78 78 78 78 78 78 78 78 78 78 79 79 78 78 78 78 77 77 77 77 76 76 76 75 75 75 75 75 76 76 76 76 76 76 76 75 75 74 74 71 71 68 66 64 64 64 64 64 64 64 64 64 64 64 65 65 65 65 64 65 65 66 65 65 67 67 67 67 67 67 65 67 67 68 68 68 68 68 68 68 68 68
61 61 61 62 62 62 62 62 63 64 64 64 64 64 64 64 64 64 64 64 64 64 64 64 64 64 64 64 64 64 64 64 64 64 64 64 64 64 64 64 64 64 64 64 64 64 64 64 64 64 64 64 64 64 64 64 64 64 64 64 64 64 64 64 64 64 64 64 64 64 64 64 64 64 64 64 64 64 64 64 64 64 64 64 64 64 64 64 64 64 64 64 64 64 64 64 64 64 64 64 64 64 64 64 64 64 64 64 64 64 64 64 65 65 65 66 66 66 67 67 67 67 67 68 68 68 68 68 69 69 69 69 69 69 69 69 69 69 70 70 70 70 70 71 71 71 71 71 71 71 71 71 72 72 72 72 72 73 73 74 75 75 77 77 77 77 77 77 77 77 77 77 77 77 77 77 78 78 78 78 78 78 78 78 78 79 78 78 78 78 78 77 77 77 77 76 76 76 76 76 75 75 76 76 76 76 77 77 77 77 76 76 76 75 71 70 66 64 64 64 64 64 64 64 64 64 64 65 65 65 65 65 64 65 65 66 65 65 67 67 67 67 67 65 65 67 67 67 68 68 68 68 68 68 68 68
60 61 61 62 62 62 62 62 62 64 64 64 64 64 64 64 64 64 64 64 64 64 64 64 64 64 64 64 64 64 64 64 64 64 64 64 64 64 64 64 64 64 64 64 64 64 64 64 64 64 64 64 64 64 64 64 64 64 64 64 64 64 64 64 64 64 64 64 64 64 64 64 64 64 64 64 64 64 64 64 64 64 64 64 64 64 64 64 64 64 64 64 64 64 64 64 64 64 64 64 64 64 64 64 64 64 64 64 64 64 64 65 65 65 65 66 66 67 67 67 67 67 67 68 68 68 68 68 69 69 69 69 69 69 69 69 69 70 70 70 70 70 70 71 71 71 71 71 71 71 71 71 72 72 72 72 72 72 73 74 75 75 75 75 76 76 76 76 76 76 77 77 77 77 77 77 77 77 78 78 78 78 78 78 78 79 78 78 78 78 78 78 78 77 77 76 76 76 76 76 76 76 76 76 76 77 77 77 77 77 77 76 76 76 72 71 68 65 64 64 64 64 64 64 64 64 65 65 65 65 65 65 64 64 66 66 65 65 65 67 67 67 65 67 65 65 67 67 67 68 68 68 68 68 68 68
60 61 61 62 62 62 62 62 64 64 64 64 64 64 64 64 64 64 64 64 64 64 64 64 64 64 64 64 64 64 64 64 64 64 64 64 64 64 64 64 64 64 64 64 64 64 64 64 64 64 64 64 64 64 64 64 64 64 64 64 64 64 64 64 64 64 64 64 64 64 64 64 64 64 64 64 64 64 64 64 64 64 64 64 64 64 64 64 64 64 64 64 64 64 64 64 64 64 64 64 64 64 64 64 64 64 64 64 64 64 64 65 65 65 66 66 66 67 67 67 67 67 67 67 68 68 68 68 68 69 69 69 69 69 69 69 70 70 70 70 70 70 70 71 71 71 71 71 71 71 71 71 72 72 72 72 72 72 73 73 73 74 74 74 74 75 75 75 76 76 76 76 76 76 77 77 77 77 77 77 78 78 78 78 78 79 78 78 78 78 78 78 78 78 77 77 76 76 76 76 76 76 76 76 76 77 77 77 77 77 77 77 76 76 74 73 70 66 65 65 64 64 64 64 64 65 65 65 65 65 65 65 64 66 66 66 65 65 65 65 67 67 65 67 65 65 67 67 67 68 68 68 68 68 68 68
61 61 61 62 62 62 63 64 64 64 64 64 64 64 64 64 64 64 64 64 64 64 64 64 64 64 64 64 64 64 64 64 64 64 64 64 64 64 64 64 64 64 64 64 64 64 64 64 64 64 64 64 64 64 64 64 64 64 64 64 64 64 64 64 64 64 64 64 64 64 64 64 64 64 64 64 64 64 64 64 64 64 64 64 64 64 64 64 64 64 64 64 64 64 64 64 64 64 64 64 64 64 64 64 64 64 64 64 64 64 65 65 65 65 66 66 66 67 67 67 67 67 67 67 68 68 68 68 68 69 69 69 69 69 69 69 70 70 70 70 70 70 71 71 71 71 71 71 71 71 71 71 72 72 72 72 72 72 72 72 73 73 73 73 73 74 74 74 75 75 76 76 76 76 76 76 77 77 77 77 77 77 78 78 78 79 79 79 79 79 78 78 78 78 77 77 76 76 76 76 76 76 76 76 77 77 77 77 77 78 77 77 77 77 75 74 72 69 67 65 65 64 64 63 64 65 65 65 65 65 65 65 66 66 66 66 65 65 65 65 65 65 65 67 63 65 67 67 67 68 68 68 68 68 68 68
61 61 62 63 62 62 63 63 64 64 64 64 64 64 64 64 64 64 64 64 64 64 64 64 64 64 64 64 64 64 64 64 64 64 64 64 64 64 64 64 64 64 64 64 64 64 64 64 64 64 64 64 64 64 64 64 64 64 64 64 64 64 64 64 64 64 64 64 63 63 64 64 64 64 64 64 64 64 64 64 64 64 64 64 64 64 64 64 64 64 64 64 64 64 64 64 64 64 64 64 64 64 64 64 64 64 64 65 65 65 65 65 65 66 66 66 66 67 67 67 67 67 67 67 68 68 68 68 68 69 69 69 69 69 69 70 70 70 70 70 70 70 71 71 71 71 71 71 71 71 71 71 72 72 72 72 72 72 72 72 72 72 72 72 73 73 73 74 74 75 75 75 76 76 76 76 76 77 77 77 77 77 78 78 78 79 79 79 79 79 79 78 78 78 78 77 77 76 76 76 76 76 76 77 77 77 77 77 78 78 78 78 78 78 76 75 74 73 69 66 65 64 64 64 65 65 65 65 65 65 65 66 66 66 66 66 65 65 65 65 65 65 65 65 65 65 67 67 67 67 68 68 68 68 68 68
61 62 63 63 61 61 62 63 63 63 64 64 64 64 64 64 64 64 64 64 64 64 64 64 64 64 64 64 64 64 64 64 64 64 64 64 64 64 64 64 64 64 64 64 64 64 64 64 64 64 64 64 64 64 64 64 64 64 64 64 64 64 64 64 64 64 64 64 64 64 64 64 64 64 64 64 64 64 64 64 64 64 64 64 64 64 64 64 64 64 64 64 64 64 64 64 64 64 64 64 65 65 65 65 65 65 65 65 65 65 65 65 65 66 66 66 66 67 67 67 67 67 67 67 67 68 68 68 68 68 69 69 69 69 69 70 70 70 70 70 70 70 70 71 71 71 71 71 71 71 71 71 71 72 72 72 72 72 72 72 72 72 72 72 72 72 73 73 74 74 74 75 75 75 75 76 76 76 77 77 77 77 78 78 78 79 79 79 79 79 79 78 78 78 78 77 77 77 76 76 76 76 76 77 77 77 77 78 78 78 78 78 78 78 76 75 74 73 70 67 65 64 64 63 63 63 63 63 63 63 63 63 63 63 63 63 65 65 65 65 65 65 65 67 65 65 67 67 67 68 68 68 68 68 68 68
64 64 63 63 61 61 62 63 63 63 63 63 64 64 64 64 64 63 64 64 64 64 64 64 64 64 64 64 64 64 64 64 64 64 64 64 64 64 64 64 64 64 64 64 64 64 64 64 64 64 64 64 64 64 64 64 64 64 64 64 64 64 64 64 64 64 64 64 64 64 64 64 64 64 64 64 64 64 64 64 64 64 64 64 64 64 64 64 64 64 64 64 64 64 64 64 64 64 65 65 65 65 65 65 65 65 65 65 65 65 65 65 65 66 66 66 67 67 67 67 67 67 67 67 67 68 68 68 68 68 69 69 69 69 69 70 70 70 70 70 70 70 70 71 71 71 71 71 71 71 71 71 71 71 72 72 72 72 72 72 72 72 72 72 71 70 70 70 69 69 74 74 74 74 75 75 76 76 76 77 77 77 77 78 78 79 79 79 79 79 79 79 78 78 78 78 77 77 77 77 76 76 77 77 77 77 78 78 78 78 78 78 78 78 76 75 74 74 70 68 66 64 65 63 66 66 66 66 67 67 67 67 67 67 67 63 65 65 65 65 65 65 65 67 65 65 67 67 67 68 68 68 68 68 68 68
63 63 63 63 62 62 63 63 63 63 63 63 63 64 63 63 63 63 64 64 64 64 64 64 64 64 64 64 64 64 64 64 64 64 64 64 64 64 64 64 64 64 64 63 64 64 64 64 64 64 64 64 64 64 64 64 64 64 64 64 64 64 64 64 64 64 64 64 64 64 64 64 64 64 64 64 64 64 64 64 64 64 64 64 64 64 64 64 64 64 64 64 64 65 65 65 65 65 65 65 65 65 65 65 65 65 65 65 65 65 65 65 66 66 66 66 67 67 67 67 67 67 67 67 67 68 68 68 68 68 68 69 69 69 69 70 70 70 70 70 70 70 70 70 71 71 71 71 71 71 71 71 71 71 71 71 72 72 72 72 72 72 72 71 70 70 70 70 69 69 69 69 73 74 74 75 75 76 76 76 77 77 77 78 78 79 79 79 79 79 79 79 79 79 78 78 78 77 77 77 77 76 77 77 77 78 78 78 78 78 78 78 78 78 76 75 74 73 71 68 66 64 65 63 66 67 67 66 67 67 67 67 67 67 67 63 65 65 65 64 65 65 65 67 65 65 67 67 67 68 68 68 68 68 68 68
63 63 63 63 62 62 63 63 63 63 63 63 63 63 63 63 63 63 64 64 64 64 64 64 64 64 64 64 64 64 64 64 64 64 64 64 64 64 64 64 64 63 63 63 63 63 63 64 64 64 64 64 64 64 64 64 64 64 64 64 64 64 64 64 64 64 64 64 64 64 64 64 64 64 64 64 64 64 64 64 64 63 64 64 64 64 64 64 64 64 64 64 65 65 65 65 65 65 65 65 65 65 65 65 65 65 65 65 65 65 65 65 66 66 66 66 67 67 67 67 67 67 67 67 67 67 68 68 68 68 68 69 69 69 69 69 70 70 70 70 70 70 70 70 70 71 71 71 71 71 71 71 71 71 71 71 71 71 72 72 72 72 72 71 70 70 70 70 70 69 69 72 73 73 73 74 75 76 76 76 77 77 77 78 78 78 79 79 79 79 79 79 79 79 78 78 78 78 77 77 77 77 77 77 77 78 78 78 78 78 78 78 78 78 76 75 74 74 72 69 66 64 65 63 67 67 67 67 67 68 68 68 68 68 67 63 65 65 65 65 65 65 65 67 65 65 67 67 68 68 68 68 68 68 68 69
63 63 63 63 63 63 63 63 63 63 63 63 63 63 63 63 63 63 64 64 64 64 64 64 64 64 64 64 64 64 64 64 64 64 64 64 64 64 63 63 63 63 63 63 63 63 63 64 64 64 64 64 64 64 64 64 64 64 64 64 64 64 64 64 64 64 64 64 64 64 64 64 64 64 64 64 64 64 64 64 64 63 64 64 64 64 64 64 64 64 64 65 65 65 65 65 65 65 65 65 65 65 65 65 65 65 65 65 65 65 65 65 66 66 66 66 66 67 67 67 66 66 67 67 67 67 67 68 68 68 68 68 69 69 69 69 70 70 70 70 70 70 70 70 70 71 71 71 71 71 71 71 71 71 71 71 71 71 71 71 72 72 72 72 71 70 70 70 70 72 72 72 72 73 73 74 75 75 76 76 76 77 77 77 78 78 78 79 79 79 79 79 79 79 78 78 78 78 78 77 77 77 77 77 78 78 78 78 78 78 78 78 78 78 76 75 74 74 71 68 66 64 65 63 67 63 63 63 63 63 63 63 63 63 63 63 63 63 63 63 63 63 63 63 63 65 67 67 68 68 68 68 68 68 69 69
63 63 63 63 63 63 63 63 63 63 63 63 63 63 63 63 63 63 64 64 64 64 64 64 64 64 64 64 64 64 64 64 64 64 64 63 63 63 63 63 63 63 63 63 63 63 63 63 64 64 64 64 64 64 64 64 64 64 64 64 64 64 64 64 64 64 64 64 64 64 64 64 64 64 64 64 64 64 64 64 63 63 64 64 64 64 64 64 64 64 64 65 65 65 65 65 65 65 65 66 66 66 66 66 65 65 65 65 65 65 65 65 65 66 66 66 66 66 66 66 66 66 66 67 67 67 67 67 67 68 68 68 68 69 69 69 70 70 70 70 70 70 70 70 70 70 71 71 71 71 71 71 71 71 71 71 71 71 71 71 71 71 72 72 72 72 72 72 72 72 72 72 72 72 73 74 75 75 76 76 76 76 77 77 77 78 78 78 78 79 79 79 79 79 78 78 78 78 78 78 78 78 78 78 78 78 78 78 78 79 78 78 78 78 76 75 74 73 70 68 66 64 65 63 67 63 67 68 68 63 68 68 68 68 68 63 65 67 67 67 67 67 63 67 63 65 67 68 68 68 68 68 68 69 69 69
63 63 63 63 63 63 63 63 63 63 63 63 63 63 63 63 63 63 63 64 64 64 64 64 64 64 64 64 64 63 63 63 63 64 63 63 63 63 63 63 63 63 63 63 63 63 63 63 63 64 64 64 64 64 64 64 64 64 64 64 64 64 64 64 64 64 64 64 64 64 64 64 64 64 64 64 64 64 64 64 63 63 64 64 64 64 64 64 64 64 64 65 65 65 65 65 66 66 66 66 66 66 66 66 66 66 65 65 65 65 65 65 65 66 66 66 66 66 66 66 66 66 66 66 66 67 67 67 67 67 67 68 68 68 69 69 69 70 70 70 70 70 70 70 70 70 70 70 71 71 71 71 71 71 71 71 71 71 71 71 71 71 71 71 72 72 72 72 72 72 72 72 72 72 73 74 74 75 75 76 76 76 76 77 77 77 78 78 78 78 78 78 79 79 79 78 78 78 78 78 78 78 78 78 78 78 78 78 79 79 79 78 78 78 76 74 73 72 70 67 66 64 65 63 67 63 68 68 68 63 69 69 69 69 68 63 65 67 67 63 67 67 63 67 63 65 68 68 68 68 68 68 68 69 69 69
63 63 63 63 63 63 63 63 63 63 63 63 63 63 63 63 63 63 63 64 64 64 64 64 64 64 64 63 63 63 63 63 63 63 63 63 63 63 63 63 63 63 63 63 63 63 63 63 63 63 64 64 64 64 64 64 64 64 64 64 64 64 64 64 64 64 64 64 64 64 64 64 64 64 64 64 64 64 64 64 63 63 64 64 64 64 64 64 64 64 65 65 65 65 66 66 66 66 66 66 66 66 66 66 66 66 66 65 65 65 65 65 65 65 66 66 66 66 66 66 66 66 66 66 66 66 66 66 67 67 67 67 68 68 69 69 69 70 70 70 70 70 70 70 70 70 70 70 70 71 71 70 70 70 70 71 71 71 71 71 71 71 71 71 71 71 72 72 72 72 72 72 72 72 73 73 74 75 75 75 76 76 76 77 77 77 77 78 78 78 78 78 78 79 79 78 78 78 78 79 79 78 78 78 78 78 78 79 79 79 79 79 78 78 76 74 73 71 69 67 65 65 65 63 67 63 68 68 69 63 69 69 69 69 69 63 68 65 65 63 65 65 63 65 63 65 68 68 68 68 68 68 68 69 69 70
63 63 63 63 63 63 63 63 63 63 63 63 63 63 63 63 63 63 63 63 63 63 63 63 64 64 63 63 63 63 63 63 63 63 63 63 63 63 63 63 63 63 63 63 63 63 63 63 63 63 63 64 64 64 64 64 64 64 64 64 64 64 64 64 64 64 64 64 64 64 64 64 64 64 64 64 64 64 63 63 63 63 64 64 64 64 64 64 64 64 64 65 65 65 66 66 66 66 66 66 66 66 66 66 66 66 66 66 66 65 65 65 65 65 65 65 66 66 66 66 66 66 66 66 66 66 66 66 66 66 67 67 68 68 68 69 69 69 69 69 69 70 70 70 70 70 70 70 70 70 70 70 70 70 70 70 70 70 71 71 71 71 71 71 71 71 72 72 72 72 72 72 72 72 73 74 74 75 75 76 76 76 76 76 77 77 77 77 78 78 78 78 78 79 79 79 79 79 79 79 79 79 79 79 79 79 79 79 75 76 77 79 79 79 76 74 73 71 69 68 65 65 66 63 67 63 68 68 69 63 69 69 69 69 69 63 68 68 68 63 67 67 63 68 63 65 68 68 68 68 68 68 69 69 69 70
63 63 63 63 63 63 63 63 63 63 63 63 63 63 63 63 63 63 63 63 63 63 63 63 63 63 63 63 63 63 63 63 63 63 63 63 63 63 63 63 63 63 63 63 63 63 63 63 63 63 63 63 64 64 64 64 64 64 64 64 64 64 64 64 64 64 64 64 64 64 64 64 64 64 64 64 64 63 63 63 63 63 64 64 64 64 64 64 64 64 64 65 65 65 65 66 66 66 66 66 66 66 66 66 66 66 66 66 66 66 65 65 65 65 65 65 65 65 65 66 66 66 66 66 66 66 66 66 66 66 67 67 67 68 68 69 69 69 69 69 69 69 69 69 69 70 70 70 70 70 70 70 70 70 70 70 70 70 70 71 71 71 71 71 71 71 72 72 72 72 72 72 72 73 73 74 74 75 75 76 76 76 76 76 77 77 77 77 78 78 78 78 78 79 79 79 79 79 79 79 79 79 79 79 79 79 80 80 80 75 76 77 78 79 77 74 72 71 70 68 67 66 67 63 63 63 63 63 63 63 63 63 63 63 63 63 63 63 63 68 68 68 63 68 63 65 68 68 68 68 68 69 69 69 70 70
63 63 63 63 63 63 63 63 63 63 63 63 63 63 63 63 63 63 63 63 63 63 63 63 63 63 63 63 63 63 63 63 63 63 63 63 63 63 63 63 62 62 63 63 63 63 63 63 63 63 63 63 63 64 64 64 64 64 64 64 64 64 64 64 64 64 64 64 64 64 64 64 64 64 64 64 63 63 63 63 63 63 63 64 64 64 64 64 64 64 64 65 65 65 65 66 66 66 66 66 66 66 66 66 66 66 66 66 66 66 66 65 65 65 65 65 65 65 65 65 66 66 66 66 66 66 66 66 66 66 66 67 67 68 68 68 69 69 69 69 69 69 69 69 69 69 69 70 70 70 70 70 70 70 70 70 70 70 70 70 70 71 71 71 71 71 72 72 72 72 72 72 73 73 73 74 75 75 75 76 76 76 76 76 77 77 77 77 77 78 78 78 78 78 79 79 79 79 79 79 79 79 79 80 80 80 80 80 74 75 76 77 77 78 77 74 72 71 70 69 68 67 63 63 63 63 63 63 63 63 63 63 63 63 63 63 63 69 63 69 68 68 63 68 63 65 68 68 68 68 69 69 69 69 70 70
63 63 63 63 63 63 63 63 63 63 63 63 63 63 63 63 63 63 63 63 63 63 63 63 63 63 63 63 63 63 63 63 63 63 63 63 62 62 62 62 62 62 62 62 62 62 63 63 63 63 63 63 63 63 64 64 64 64 64 64 64 64 64 64 64 64 64 64 64 64 64 64 64 63 63 63 63 63 63 63 63 63 63 64 64 64 64 64 64 64 64 64 65 65 65 66 66 66 66 66 66 66 66 66 66 67 66 66 66 66 66 66 65 65 65 65 65 65 65 65 66 66 66 66 66 65 66 66 66 66 66 67 67 68 68 68 68 68 68 69 69 69 69 69 69 69 69 69 70 70 70 70 70 70 70 70 70 70 70 70 70 70 71 71 71 71 72 72 72 72 72 73 73 73 74 74 75 75 76 76 76 76 76 76 77 77 77 77 77 77 78 78 78 78 79 79 79 79 79 79 79 79 80 80 80 81 81 81 81 81 81 81 81 78 77 74 72 71 70 69 68 67 63 63 68 63 69 69 69 63 69 69 70 70 70 63 63 70 63 69 69 68 63 68 63 65 68 68 68 68 69 69 69 70 70 70
63 63 63 63 63 63 63 63 63 63 63 63 63 63 63 63 63 63 63 63 63 63 63 63 63 63 63 63 63 63 63 63 63 63 63 62 62 62 62 62 62 62 62 62 62 62 63 63 63 63 63 63 63 63 63 64 64 64 64 64 64 64 64 64 64 64 64 64 64 63 63 63 63 63 63 63 63 63 63 63 63 63 64 64 64 64 64 64 64 64 64 65 65 65 65 66 66 66 66 66 66 66 66 67 67 67 67 66 66 66 66 66 65 65 65 65 65 65 65 66 66 66 66 66 66 65 65 65 65 65 66 66 67 67 67 68 68 68 68 68 68 68 69 69 69 69 69 69 69 69 70 70 70 70 70 70 70 70 70 70 70 70 71 71 71 71 72 72 72 72 72 73 73 73 74 74 75 76 76 76 76 76 77 77 77 77 77 77 77 77 78 78 78 78 78 79 79 79 79 79 79 79 80 80 81 81 81 81 81 81 81 81 81 78 77 74 72 71 70 69 68 67 63 63 68 63 69 69 69 63 69 69 70 70 70 63 63 70 63 69 69 69 63 69 63 65 68 69 69 69 69 69 70 70 70 71
63 63 63 63 63 63 63 63 63 63 63 63 63 63 63 63 63 63 63 63 63 63 63 63 63 63 63 63 63 63 63 63 63 63 62 62 62 62 62 62 62 62 62 62 62 62 63 63 63 63 63 63 63 63 63 63 64 64 64 64 64 64 64 64 64 64 64 63 63 63 63 63 63 63 63 63 63 63 63 63 63 63 64 64 64 64 64 64 64 64 64 65 65 65 66 66 66 66 66 66 66 67 67 67 67 67 67 66 66 66 66 66 66 65 65 65 65 65 66 66 66 67 66 66 65 65 65 65 65 65 65 66 66 66 67 67 68 68 68 68 68 68 68 68 69 69 69 69 69 69 69 69 70 70 70 70 70 70 70 70 70 70 71 71 71 71 72 72 72 72 73 73 73 73 74 75 75 76 76 76 77 77 77 77 77 77 77 77 77 77 77 78 78 78 78 79 79 79 79 79 79 79 80 80 81 81 81 81 81 81 81 81 81 81 77 73 71 70 70 68 69 67 63 63 68 63 69 69 69 63 69 69 69 69 70 63 63 70 63 69 69 69 63 69 63 65 69 69 69 69 69 70 70 70 70 71
63 63 63 63 63 63 63 63 63 63 63 63 63 63 63 63 63 63 63 63 63 63 63 63 63 63 63 63 63 63 63 63 63 62 62 62 62 62 62 62 62 62 62 62 62 62 63 63 63 63 63 63 63 63 63 63 64 64 64 64 64 64 64 64 64 64 64 63 63 63 63 63 63 63 63 63 63 63 63 63 64 64 64 64 64 64 64 64 64 64 64 65 65 65 66 66 66 67 67 67 67 67 67 67 67 67 67 67 66 66 66 66 66 65 65 65 65 65 66 66 67 67 67 66 65 65 65 65 65 65 65 65 66 66 66 67 67 68 68 68 68 68 68 68 68 68 69 69 69 69 69 69 69 70 70 70 69 69 70 70 70 70 71 71 71 71 72 72 72 72 73 73 73 74 74 75 75 76 76 77 77 77 77 77 77 77 77 77 77 77 77 78 78 78 78 78 79 79 79 79 79 79 80 80 81 81 81 81 81 81 81 81 81 81 77 72 71 70 70 69 69 68 63 63 68 63 69 69 69 63 68 70 70 70 70 63 63 70 63 70 70 70 63 65 63 69 69 69 69 69 69 70 70 71 71 71
63 63 63 63 63 63 63 63 63 63 63 63 63 63 63 63 63 63 63 63 63 63 63 63 63 63 63 63 63 62 62 62 62 62 62 62 62 62 62 62 62 62 62 62 62 62 62 63 63 63 63 63 63 63 63 63 63 64 64 64 64 64 64 64 64 64 63 63 63 63 63 63 63 63 63 63 63 63 63 63 64 64 64 64 64 64 64 64 64 64 64 65 65 66 66 66 66 67 67 67 67 67 67 67 67 67 67 67 67 66 66 66 66 65 65 66 66 66 66 67 67 67 67 66 65 64 64 64 64 64 65 65 65 65 66 66 67 67 68 68 68 68 68 68 68 68 68 69 69 69 69 69 69 69 69 69 69 69 70 70 70 70 71 71 71 71 72 72 72 72 73 73 73 74 74 75 76 76 77 77 77 77 78 78 78 78 78 77 77 77 77 77 78 78 78 78 79 79 79 79 79 79 80 80 81 81 81 81 81 81 81 81 81 81 77 72 71 70 70 69 69 68 63 63 69 63 69 69 69 63 68 70 70 70 65 63 63 70 63 70 70 70 63 69 63 69 69 65 69 69 70 70 70 71 71 71
63 63 63 63 63 63 63 63 63 63 63 63 63 63 63 63 63 63 63 63 63 63 63 63 63 63 63 63 62 62 62 62 62 62 62 62 62 62 62 62 62 62 62 62 62 62 62 62 63 63 63 63 63 63 63 63 63 64 64 64 64 64 64 64 64 64 63 63 63 63 63 63 63 63 63 63 63 63 63 61 64 64 64 64 61 61 64 64 64 64 64 65 65 65 66 66 66 67 67 67 67 67 67 67 66 66 66 66 66 66 66 66 65 65 65 65 65 65 66 66 66 67 66 66 65 64 64 64 64 64 64 65 65 65 66 66 67 67 67 67 68 68 68 68 68 68 68 68 69 69 69 69 69 69 69 69 69 69 69 70 70 70 71 71 71 71 72 72 72 72 73 73 73 74 74 75 76 76 77 77 77 77 77 78 78 78 77 77 77 77 77 77 77 77 78 78 78 78 79 79 79 79 79 79 79 79 80 80 81 81 80 79 78 77 73 71 71 70 70 69 69 68 63 63 69 63 69 69 69 63 70 70 70 70 70 63 63 70 63 70 70 70 63 70 63 69 69 69 70 70 70 70 71 71 71 71
63 63 63 63 63 63 63 63 63 63 63 63 63 63 63 63 63 63 63 63 62 62 63 63 63 63 63 62 62 62 62 62 62 62 62 62 62 62 62 62 62 62 62 62 62 62 62 62 62 62 63 63 63 63 63 63 63 63 64 64 64 64 64 64 64 64 63 63 63 63 63 63 63 63 63 63 63 63 61 60 60 60 64 64 61 61 61 64 64 64 64 65 65 65 66 66 66 67 67 67 67 67 67 66 66 65 65 65 65 65 65 65 65 65 65 65 65 65 65 66 66 66 66 65 65 65 64 64 64 64 64 65 65 65 66 66 67 67 67 67 67 67 68 68 68 68 68 68 68 69 69 69 69 69 69 69 69 69 69 70 70 70 71 71 71 71 72 72 72 72 73 73 73 73 74 75 76 76 77 77 77 77 77 77 77 77 77 77 77 77 77 77 77 77 77 78 78 78 78 78 79 79 79 78 78 77 78 79 80 81 76 73 72 72 71 71 70 69 69 69 68 68 63 63 69 63 69 69 69 63 70 70 70 70 70 63 63 70 63 70 70 70 63 70 63 70 70 70 70 70 70 70 71 71 71 71
63 63 63 63 63 63 63 63 63 63 63 63 63 62 62 62 62 62 62 62 62 62 62 62 63 63 62 62 62 62 62 62 62 62 62 62 62 62 62 62 62 62 62 62 62 62 62 62 62 62 63 63 63 63 63 63 63 63 63 64 64 64 64 62 62 63 63 63 63 63 63 63 63 63 63 63 63 61 60 60 60 60 60 64 61 61 61 64 64 64 64 65 65 65 66 66 67 67 67 67 67 67 66 66 65 64 64 65 65 65 65 65 65 65 65 65 65 65 65 65 65 65 65 65 65 65 64 64 64 64 64 65 65 65 66 66 66 67 67 67 67 67 67 67 67 67 68 68 68 69 69 69 69 69 69 69 69 69 69 70 70 70 71 71 71 71 72 72 72 72 72 73 73 73 74 75 76 76 77 77 77 77 77 77 77 77 77 77 77 77 77 77 77 77 77 77 77 77 78 78 79 79 78 77 75 72 72 72 72 81 72 71 71 71 70 70 69 69 68 68 68 68 63 63 63 63 63 63 63 63 63 63 63 63 63 63 63 63 63 70 70 70 63 70 63 70 70 70 70 70 70 71 71 71 71 71
63 63 63 63 63 63 63 63 63 63 63 62 62 62 62 62 62 62 62 62 62 62 62 62 62 62 62 62 62 62 62 62 62 62 62 62 62 62 62 62 62 62 62 62 62 62 62 62 62 62 62 63 63 63 63 63 63 63 63 63 64 61 60 60 60 60 61 63 63 63 63 63 63 63 63 63 63 60 60 59 59 59 60 60 61 61 61 64 64 64 64 65 65 65 66 66 67 67 67 67 67 67 66 65 64 64 64 64 64 65 65 65 65 65 65 65 65 64 64 64 64 64 64 65 65 65 65 64 64 64 64 65 65 65 66 66 66 67 67 67 67 67 67 67 67 67 68 68 68 68 69 69 69 69 69 69 69 69 69 70 70 70 71 71 71 71 72 72 72 72 72 73 73 73 74 75 76 76 77 77 77 77 77 77 77 77 77 77 77 76 76 77 77 77 77 77 77 77 77 78 78 79 78 75 72 72 72 72 72 81 71 70 70 69 69 69 68 67 68 68 68 68 63 63 69 63 69 69 70 63 70 70 70 70 70 63 63 70 70 70 70 70 63 70 63 70 70 70 70 71 71 71 71 71 71 71
64 63 63 63 63 63 63 63 63 63 62 62 62 62 62 62 62 62 62 62 62 62 62 62 62 62 62 62 62 62 62 62 62 62 62 62 62 62 62 62 62 62 62 62 62 62 62 62 62 62 62 63 63 63 63 63 63 63 61 60 60 60 60 60 60 60 61 62 63 63 63 63 63 63 63 63 63 60 60 59 59 59 60 60 64 61 64 64 64 64 64 65 65 66 66 66 67 67 67 66 66 66 61 61 62 64 64 64 64 64 65 65 65 65 65 65 65 65 65 65 65 65 65 65 65 65 65 65 64 64 65 65 65 65 66 66 66 66 66 67 67 67 67 67 67 67 67 68 68 68 68 69 69 69 69 69 69 69 69 70 70 70 70 71 71 71 71 72 72 72 72 72 73 73 74 75 76 76 77 77 77 77 77 77 77 77 77 76 76 76 75 75 74 74 74 74 74 74 74 74 74 74 72 72 71 71 71 71 71 70 70 70 69 69 69 68 68 67 68 68 68 68 63 63 69 63 69 69 70 63 70 70 70 70 70 63 63 70 70 70 70 70 63 70 63 70 70 70 71 71 71 71 71 71 71 71
64 64 63 63 63 63 63 63 63 63 62 62 62 62 62 62 62 62 62 62 62 62 62 62 62 62 62 62 62 62 62 62 62 62 62 62 62 62 62 62 62 62 62 62 62 62 62 62 62 62 62 62 63 63 63 63 63 63 60 59 59 59 60 61 60 61 61 61 62 63 63 63 63 63 63 63 63 61 60 60 59 60 60 60 64 64 64 64 64 64 65 65 65 65 66 66 66 67 61 61 61 60 60 60 61 64 64 64 64 64 64 65 65 65 65 65 65 65 65 65 65 65 65 65 65 65 65 65 65 65 65 65 65 65 66 66 66 66 66 66 66 66 67 67 67 67 67 67 68 68 68 68 69 69 69 69 69 69 69 69 70 70 70 71 71 71 71 72 72 72 72 72 73 73 74 75 76 76 77 77 77 77 77 77 77 77 76 76 76 76 74 73 72 72 72 72 72 72 72 72 72 72 71 71 70 70 70 70 69 69 69 69 69 68 68 68 68 67 68 68 68 68 63 63 63 63 63 63 63 63 63 63 63 63 63 63 63 63 63 63 63 63 63 63 63 70 70 70 71 71 71 71 71 71 71 71
64 64 64 63 63 63 63 63 63 62 62 62 62 62 62 62 62 62 62 62 62 62 62 62 62 62 62 62 62 62 62 62 62 62 62 62 62 62 62 62 62 62 62 62 62 62 62 62 62 62 62 62 62 63 63 63 63 63 60 59 59 59 60 61 60 61 61 61 62 63 63 63 63 63 63 63 63 61 60 60 60 60 60 61 64 64 64 64 64 64 65 65 65 65 66 66 66 67 61 61 61 60 60 60 61 64 64 64 64 64 64 64 65 65 65 65 65 65 65 65 65 65 65 65 65 65 65 65 65 65 65 65 65 66 66 66 66 66 66 66 66 66 66 66 66 67 67 67 67 68 68 68 68 69 69 69 69 69 69 69 70 70 70 70 71 71 71 71 72 72 72 72 73 73 74 75 76 76 77 77 77 77 77 77 77 77 76 76 76 75 74 72 72 71 71 71 70 70 70 70 71 71 70 70 69 68 68 68 68 68 68 68 68 68 68 68 67 67 67 68 68 68 63 68 68 63 69 69 69 69 70 70 70 70 70 70 63 70 70 70 70 70 63 70 70 70 70 71 71 71 71 71 71 71 71 71
64 64 64 63 63 63 63 63 63 62 62 62 62 62 62 62 62 62 62 62 62 62 62 62 62 62 62 62 62 62 62 62 62 62 62 62 62 62 62 62 62 62 62 62 62 62 62 62 62 62 62 62 62 63 63 63 63 63 60 59 59 60 60 61 61 61 61 61 62 63 63 63 63 63 63 63 63 63 61 60 60 60 61 64 64 64 64 64 64 65 65 65 65 66 66 66 66 67 61 60 60 60 60 60 61 64 64 64 64 64 64 64 64 65 65 65 65 65 65 65 65 65 65 65 65 65 65 65 65 65 65 65 66 66 66 66 66 66 66 66 66 66 66 66 66 66 67 67 67 68 68 68 68 68 68 69 69 69 69 69 70 70 70 70 71 71 71 71 71 72 72 72 73 73 74 75 76 76 77 77 77 77 77 77 76 76 76 76 75 75 73 72 71 70 70 69 69 69 69 69 70 70 69 69 68 67 67 67 67 67 67 67 67 67 67 67 67 67 67 67 68 68 63 63 63 63 63 63 63 63 63 63 63 63 63 63 63 63 63 63 63 63 63 70 70 70 70 71 71 71 71 71 71 71 71 71
64 64 64 63 63 63 63 63 63 63 62 62 62 62 62 62 62 62 62 62 62 62 62 62 62 62 62 62 62 62 62 62 62 62 62 62 62 62 62 62 62 62 62 62 62 62 62 62 62 62 62 62 62 62 62 63 63 63 63 60 60 61 63 62 62 62 62 62 63 63 63 63 63 63 63 63 63 63 63 63 63 64 64 64 64 64 64 64 64 64 65 65 65 66 66 66 66 66 61 60 60 60 60 61 61 64 64 64 64 64 64 64 64 64 64 65 65 65 65 65 65 65 65 65 65 65 65 65 65 65 65 65 65 66 66 66 66 66 66 66 66 66 66 66 66 66 66 67 67 67 67 68 68 68 68 68 69 69 69 69 69 70 70 70 70 71 71 71 71 71 72 72 72 72 73 74 75 76 76 76 77 77 77 76 76 76 76 76 75 75 74 72 72 71 70 70 70 69 69 69 69 69 69 69 68 67 67 67 67 67 67 67 67 67 67 67 67 67 67 67 67 68 68 63 68 68 69 69 69 69 69 69 70 70 70 70 70 70 70 70 70 70 70 70 63 70 70 71 71 71 71 71 71 71 71 71
64 64 64 63 63 63 63 63 63 63 63 62 62 62 62 62 62 62 62 62 62 62 62 62 62 62 62 62 62 62 62 62 62 62 62 62 62 62 62 62 62 62 62 62 62 62 62 62 62 62 62 62 62 62 62 62 63 63 63 63 63 63 63 63 63 63 63 63 63 63 63 63 63 63 63 63 63 63 63 63 63 63 63 63 63 63 64 64 64 64 65 65 65 66 66 66 66 66 61 61 60 60 61 61 62 64 64 64 64 64 64 64 64 64 64 64 64 65 65 65 65 65 65 65 65 65 65 65 65 65 65 65 65 65 66 66 66 66 66 66 66 66 66 66 66 66 66 66 67 67 67 67 68 68 68 68 68 68 69 69 69 69 70 70 70 70 70 71 71 71 71 71 72 72 72 73 74 76 76 76 76 76 76 76 76 76 76 76 75 75 74 73 72 72 71 70 70 69 69 69 69 69 69 68 68 68 67 67 67 67 67 67 67 67 67 67 67 67 67 67 67 68 68 68 68 68 68 69 69 69 69 69 69 70 70 70 70 70 70 70 70 70 70 70 70 70 70 71 71 71 71 71 71 71 71 71
64 64 64 63 63 63 63 63 63 63 63 63 62 62 62 62 62 62 62 62 62 62 62 62 62 62 62 62 62 62 62 62 62 62 62 62 62 62 62 62 62 62 62 62 62 62 62 62 62 62 62 62 62 62 62 62 62 63 63 63 63 63 63 63 63 63 63 63 63 63 63 63 63 63 63 63 63 63 63 63 63 63 63 63 63 63 64 64 64 64 64 65 65 65 66 66 66 66 65 62 61 61 61 62 64 64 64 64 64 64 64 64 64 64 64 64 64 65 65 65 65 65 65 65 65 65 65 65 65 65 65 65 65 65 65 66 66 66 66 66 66 66 65 65 65 65 65 66 66 67 67 67 67 67 68 68 68 68 69 69 69 69 69 70 70 70 70 70 70 70 71 71 71 72 72 72 74 75 75 76 76 76 76 76 76 76 76 75 75 75 74 74 73 73 72 71 70 69 69 69 69 69 69 68 68 68 68 67 67 67 67 67 67 67 67 67 67 67 67 67 67 67 68 68 68 68 68 68 69 69 69 69 69 69 70 70 70 70 70 70 70 70 70 70 70 70 70 71 71 71 71 71 71 71 71 71
64 64 64 64 63 63 63 63 63 63 63 63 63 62 62 62 62 62 62 62 62 62 62 62 62 62 62 62 62 61 61 61 61 61 62 62 62 62 62 62 62 62 62 62 62 62 62 62 62 62 62 62 62 62 62 62 62 62 62 62 63 63 63 63 63 63 63 63 63 63 63 63 63 63 63 63 63 63 63 63 63 63 63 63 63 63 63 64 64 64 64 65 65 65 65 66 66 66 65 64 64 63 63 64 64 64 64 64 64 64 64 64 64 64 64 64 64 64 64 64 64 64 64 65 65 65 65 65 65 65 65 65 65 65 65 66 66 66 66 66 66 65 65 65 65 64 65 65 66 66 67 67 67 67 67 68 68 68 68 69 69 69 69 69 70 70 70 70 70 70 70 71 71 71 72 72 73 75 75 75 75 76 76 76 76 75 75 75 75 75 75 74 74 74 72 71 70 69 69 68 68 69 69 68 68 68 68 68 67 67 67 67 67 67 67 67 67 67 67 67 67 67 67 68 68 68 68 68 68 69 69 69 69 69 69 70 70 70 70 70 70 70 70 70 70 70 70 71 71 71 71 71 71 71 71 70
64 64 64 64 64 63 63 63 63 63 63 63 63 63 63 63 63 63 63 62 62 62 62 62 62 62 62 62 62 61 61 61 61 61 62 62 62 62 62 62 62 62 62 62 62 62 62 62 62 62 62 62 62 62 62 62 62 62 62 62 62 62 63 63 63 63 63 63 63 63 63 63 63 63 63 63 63 63 63 63 63 63 63 63 63 63 63 64 64 64 64 64 65 65 65 65 65 65 64 64 64 63 63 63 64 64 64 64 64 64 64 64 64 64 64 64 64 64 64 64 64 64 64 64 65 65 65 65 65 65 65 65 65 65 65 65 65 66 65 65 65 65 65 65 64 64 65 65 66 66 66 66 67 67 67 67 68 68 68 68 69 69 69 69 69 69 69 70 70 70 70 70 70 71 71 72 72 74 74 75 75 75 75 75 75 75 75 75 75 75 75 75 74 74 73 72 71 69 68 67 67 67 69 69 68 68 68 68 67 67 67 67 67 67 67 67 67 67 67 67 67 67 67 68 68 68 68 68 68 69 69 69 69 69 69 70 70 70 70 70 70 70 70 70 70 70 70 70 71 71 71 71 70 70 70 70
64 64 64 64 64 64 63 63 63 63 63 63 63 63 63 63 63 63 63 63 62 62 62 62 62 62 62 62 62 62 61 61 61 61 62 62 62 62 62 62 62 62 62 62 62 62 62 62 62 62 62 62 62 62 62 62 62 62 62 62 62 62 62 62 62 63 63 63 63 63 63 63 63 63 63 62 62 62 62 62 62 63 63 63 63 63 63 64 64 64 64 64 64 64 64 64 64 64 64 64 64 63 63 63 63 64 64 64 64 64 64 64 64 64 64 64 64 64 64 64 64 64 64 64 64 64 65 65 65 65 65 65 65 64 65 65 65 65 65 65 64 64 64 64 64 64 65 65 65 66 66 66 66 67 67 67 67 68 68 68 68 69 69 69 69 69 69 69 69 69 70 70 70 70 71 72 72 73 74 74 74 75 75 75 75 75 75 75 75 75 75 75 75 75 73 72 72 69 67 66 66 66 66 69 69 68 68 68 67 67 67 67 67 67 67 67 67 67 67 67 67 67 67 68 68 68 68 68 68 69 69 69 69 69 69 69 70 70 70 70 70 70 70 70 70 70 70 70 70 70 70 70 70 70 70 70
64 64 64 64 64 64 64 63 63 63 63 63 63 63 63 63 63 63 63 63 62 62 62 62 62 62 62 62 62 62 62 61 61 61 61 62 62 62 62 62 62 62 62 62 62 62 62 62 62 62 62 62 62 62 62 62 62 62 62 62 62 62 62 62 62 62 62 62 63 63 63 63 63 63 62 62 62 62 62 62 62 62 62 63 63 63 63 64 64 64 64 64 64 64 64 64 64 64 64 64 64 63 63 63 63 63 63 64 64 64 64 64 64 64 64 64 64 64 64 64 64 64 64 64 64 64 64 64 65 65 65 64 64 64 64 64 64 64 64 64 64 64 64 64 64 64 64 65 65 66 66 66 66 66 67 67 67 67 68 68 68 68 68 69 69 69 69 69 69 69 69 70 70 70 71 72 72 73 73 74 74 75 75 75 75 75 75 75 75 75 75 75 75 75 74 73 73 70 67 66 66 66 66 69 69 68 68 68 67 67 67 67 67 67 67 67 67 67 67 67 67 67 67 68 68 68 68 68 68 69 69 69 69 69 69 69 69 70 70 70 70 70 70 70 70 70 70 70 70 70 70 70 70 70 70 70
64 64 64 64 64 64 64 64 64 63 63 63 63 63 63 63 63 63 63 63 63 62 62 62 62 62 62 62 62 62 62 61 61 61 61 62 62 62 62 62 62 62 62 62 62 62 62 62 62 62 62 62 62 62 62 62 62 62 62 62 62 62 62 62 62 62 62 62 62 62 62 62 62 62 62 62 62 62 62 62 62 62 62 62 63 63 63 64 64 64 64 64 64 64 64 64 63 63 63 63 63 63 63 63 63 63 63 63 63 63 63 64 64 64 64 64 64 64 64 64 64 64 64 64 64 64 64 64 64 64 64 64 64 64 64 64 64 64 64 64 64 64 64 64 64 64 64 65 65 65 66 66 66 66 66 67 67 67 67 68 68 68 68 68 68 68 68 69 69 69 69 69 70 70 71 71 72 72 72 73 74 74 74 74 75 75 75 75 75 75 75 76 76 76 75 75 74 74 67 66 65 65 65 66 69 68 68 68 68 67 67 67 67 67 67 67 67 67 67 67 67 67 67 68 68 68 68 68 68 69 69 69 69 69 69 69 69 69 70 70 70 70 70 70 70 70 70 70 70 70 70 70 70 70 70 70
64 64 64 64 64 64 64 64 64 64 63 63 63 63 63 63 63 63 63 63 63 62 62 62 62 62 62 62 62 62 62 61 61 61 61 62 62 62 62 62 62 62 62 62 62 62 62 62 62 62 62 62 62 62 62 62 62 62 62 62 62 62 62 62 62 62 62 62 62 62 62 62 62 62 62 62 62 62 62 62 62 62 62 62 63 63 63 63 64 64 64 64 64 64 64 64 63 63 63 63 63 63 63 63 63 63 63 63 63 63 63 64 64 64 64 64 64 64 64 64 64 64 64 64 64 64 64 64 64 64 64 64 64 64 64 64 64 64 64 64 64 64 64 64 64 64 64 64 65 65 65 66 66 66 66 67 67 67 67 67 68 68 68 68 68 68 68 68 68 69 69 69 69 69 70 71 71 72 72 72 73 73 74 74 74 75 75 75 75 75 75 76 76 76 75 75 75 74 73 72 71 71 65 70 70 69 69 69 69 69 68 68 68 67 67 67 67 67 67 67 67 67 68 68 68 68 68 68 68 69 69 69 69 69 69 69 69 69 69 69 70 70 70 70 70 70 70 70 70 70 70 70 70 69 69 69
64 64 64 64 64 64 64 64 64 64 63 63 63 63 63 63 63 63 63 63 63 63 62 62 62 62 62 62 62 62 62 62 61 61 62 62 62 62 62 62 62 62 62 62 62 62 62 62 62 63 63 63 63 63 63 63 62 62 62 62 62 62 62 62 62 62 62 62 62 62 62 62 63 63 62 62 62 62 62 62 62 62 62 62 63 63 63 63 63 64 64 64 64 64 64 63 63 63 63 63 63 63 63 63 63 63 63 63 63 63 63 63 64 64 64 64 64 64 64 64 64 64 64 64 64 64 64 64 64 64 64 64 64 64 64 64 64 64 64 64 64 64 64 64 64 64 64 64 64 65 65 66 66 66 66 67 67 67 67 67 67 67 68 68 68 68 68 68 68 68 69 69 69 69 70 70 71 71 72 72 72 73 73 74 74 74 75 75 75 75 75 76 76 76 75 75 75 75 74 72 72 71 71 71 71 71 70 70 70 70 69 69 68 67 67 67 67 67 67 67 67 67 68 68 68 68 68 68 68 69 69 69 69 69 69 69 69 69 69 69 69 69 70 70 70 70 70 70 70 70 69 69 69 69 69 69
64 64 64 64 64 64 64 64 64 64 64 63 63 63 63 63 63 63 63 63 63 63 62 62 62 62 62 62 62 62 62 62 61 61 62 62 62 62 62 62 62 62 62 62 62 62 62 63 63 63 63 63 63 63 63 63 63 63 62 62 62 62 62 62 62 62 62 62 62 62 62 63 63 63 63 62 62 62 62 62 62 62 62 62 63 63 63 63 63 63 63 63 63 63 63 63 63 63 63 63 63 63 63 63 63 63 63 63 63 63 63 63 64 64 64 64 64 64 64 64 64 64 64 64 64 64 64 64 64 64 64 64 64 64 64 64 64 64 64 64 64 64 64 64 64 64 64 64 64 65 65 65 66 66 66 66 67 67 67 67 67 67 67 67 68 68 68 68 68 68 68 68 69 69 69 70 70 71 71 72 72 72 73 73 74 74 75 75 75 75 76 76 76 76 76 75 75 75 75 74 73 72 72 72 72 72 71 71 71 71 70 69 68 67 67 67 67 67 67 67 67 68 68 68 68 68 68 68 68 69 69 69 69 69 69 69 69 69 69 69 69 69 69 69 69 69 69 69 69 69 69 69 69 69 69 69
64 64 64 64 64 64 64 64 64 64 64 63 63 63 63 63 63 63 63 63 63 63 63 62 62 62 62 62 62 62 62 62 62 61 62 62 62 62 62 62 62 62 62 62 62 62 62 63 63 63 63 64 64 64 63 63 63 63 63 62 62 62 62 62 62 62 62 62 62 62 62 63 63 63 63 63 63 63 62 62 62 62 62 62 62 63 63 63 63 63 63 63 63 63 63 63 63 63 63 63 63 63 63 63 63 63 63 63 63 63 63 63 64 64 64 64 64 64 64 64 64 64 64 64 64 64 64 64 64 64 64 64 64 64 64 64 64 64 64 64 64 64 64 64 64 64 64 64 64 64 65 65 66 66 66 66 67 67 67 67 67 67 67 67 67 67 68 68 68 68 68 68 68 68 69 69 70 70 71 71 71 72 72 73 73 74 75 75 75 76 76 76 76 76 76 76 76 76 76 76 76 76 75 74 74 73 72 72 72 72 71 70 69 67 67 67 67 67 67 67 68 68 68 68 68 68 68 68 68 69 69 69 69 69 69 69 69 69 69 69 69 69 69 69 69 69 69 69 69 69 69 69 69 69 69 69
64 64 64 64 64 64 64 64 64 64 64 64 63 63 63 63 63 63 63 63 63 63 63 62 62 62 62 62 62 62 62 62 62 62 62 62 62 62 62 62 62 62 62 62 62 62 63 63 63 64 64 64 64 64 64 64 63 63 63 63 63 63 63 62 62 62 62 62 62 62 63 63 63 63 63 63 63 63 63 63 63 63 63 63 63 63 63 63 63 64 64 64 64 64 64 64 63 63 63 63 63 63 63 63 63 63 63 63 63 63 63 63 63 63 64 64 64 64 64 64 64 64 64 64 64 64 64 64 64 64 64 64 64 64 64 64 64 64 64 64 64 64 64 64 64 64 64 64 64 64 65 65 66 66 66 66 67 67 67 67 67 67 67 67 67 67 67 68 68 68 68 68 68 68 69 69 69 69 70 71 71 72 72 72 73 74 74 75 75 75 75 75 75 75 75 75 75 75 76 76 76 76 75 75 74 74 73 73 72 72 72 71 70 69 69 68 68 68 68 68 68 68 68 68 68 68 68 68 68 69 69 69 69 69 69 70 70 70 70 70 70 71 71 71 71 71 71 71 71 71 70 70 69 69 69 69
64 64 64 64 64 64 64 64 64 64 64 64 63 63 63 63 63 63 63 63 63 63 63 62 62 62 62 62 62 62 62 62 62 62 62 62 62 62 62 62 62 62 62 62 62 62 63 63 63 64 64 64 64 64 64 64 64 63 63 63 63 63 63 63 62 62 62 62 62 62 63 63 63 63 63 63 63 63 63 63 63 63 63 63 63 64 64 64 64 64 64 64 64 64 64 64 64 63 63 63 63 63 63 63 63 63 63 63 63 63 63 63 63 63 63 63 64 64 64 64 64 64 64 64 64 64 64 64 64 64 64 64 64 64 64 64 64 64 64 64 64 64 64 64 64 64 64 64 64 64 64 65 65 66 66 66 67 67 67 67 67 67 67 67 67 67 67 67 68 68 68 68 68 68 68 69 69 69 70 71 71 72 72 72 73 73 74 74 75 75 75 75 75 75 75 75 75 75 75 76 76 76 75 75 75 74 74 74 73 73 72 72 71 71 70 70 69 68 68 68 68 68 68 68 68 68 68 68 68 69 69 69 69 69 70 70 71 71 71 72 72 72 73 73 73 73 73 72 72 72 71 70 70 69 69 69
64 64 64 64 64 64 64 64 64 64 64 64 64 63 63 63 63 63 63 63 63 63 62 62 62 61 61 62 62 62 62 62 62 62 62 62 62 62 62 62 62 62 62 62 62 63 63 63 64 64 64 64 64 64 64 64 64 64 64 64 63 63 63 63 63 62 62 62 62 62 63 63 63 63 63 63 63 63 63 63 63 63 64 64 64 64 64 64 64 65 65 65 65 65 64 64 64 64 64 64 63 63 63 63 63 63 63 63 63 63 63 63 63 63 63 63 63 63 63 63 63 63 63 63 63 63 64 64 64 64 64 64 64 64 64 64 64 64 64 64 64 64 64 64 64 64 64 64 64 64 64 65 65 65 66 66 67 67 67 67 67 67 67 67 67 67 67 67 68 68 68 68 68 68 68 68 68 69 70 70 71 71 72 72 72 73 74 74 75 75 75 75 75 75 75 75 75 75 75 75 76 76 76 75 75 75 75 75 75 75 74 74 73 72 72 71 70 69 69 68 68 68 68 68 68 68 68 68 68 69 69 69 69 70 70 71 71 72 74 76 77 78 78 78 78 78 78 77 77 77 74 71 70 68 69 69
64 64 64 64 64 64 64 64 64 64 64 64 64 63 63 63 63 63 63 63 62 62 62 62 62 61 61 62 62 62 62 62 62 62 62 62 62 62 62 62 62 62 62 62 63 63 63 64 64 64 64 65 65 65 65 65 64 64 64 64 64 64 63 63 63 62 62 62 63 63 63 63 63 63 63 63 64 64 64 64 64 64 64 64 65 65 65 65 65 65 65 66 66 66 65 64 64 64 64 64 64 63 63 63 63 63 63 63 63 63 63 63 63 63 63 63 63 63 63 63 63 63 63 63 63 63 63 63 64 64 64 64 64 64 64 64 64 64 64 64 64 64 64 64 64 64 64 64 64 64 62 62 61 61 66 66 67 67 67 67 67 67 67 67 67 67 67 67 68 68 68 68 68 68 68 68 68 68 69 70 71 71 72 72 72 73 73 74 75 75 75 75 75 75 75 75 75 75 75 75 76 76 76 76 76 76 76 76 76 77 77 77 77 77 76 72 71 69 69 68 68 68 68 68 68 68 68 68 68 69 69 69 69 70 70 71 73 78 79 79 80 80 79 80 80 80 80 80 80 80 79 72 70 68 69 69
64 64 64 64 64 64 64 64 64 64 64 64 64 63 63 63 63 63 63 62 62 61 61 62 62 62 62 62 62 62 62 62 62 62 62 62 62 62 62 62 62 62 62 63 63 63 63 64 64 64 65 65 65 65 65 65 65 65 64 64 64 64 64 63 63 63 63 63 63 63 63 63 63 63 64 64 64 64 64 64 64 64 65 65 65 65 65 66 66 66 66 66 66 66 65 65 65 64 64 64 64 64 64 64 64 63 63 63 63 63 63 63 63 63 63 63 63 63 63 63 63 63 63 63 63 63 63 63 64 64 64 64 64 64 64 64 64 64 64 64 64 64 64 64 64 64 64 64 64 62 61 61 61 61 61 66 66 67 67 67 67 67 67 67 67 67 67 67 68 68 68 68 68 68 68 68 68 68 69 70 70 71 71 72 72 72 73 74 74 75 75 75 75 75 75 75 75 75 75 75 75 76 76 76 76 76 76 76 76 76 76 77 77 77 76 73 72 71 70 69 68 68 68 68 68 68 69 69 69 70 70 70 71 71 72 73 76 78 79 79 80 80 80 80 80 80 80 80 80 80 79 78 72 70 70 71
64 64 64 64 64 64 64 64 64 64 64 64 64 64 63 63 63 63 63 62 61 61 61 62 62 62 62 63 62 62 62 62 62 62 62 62 62 62 62 62 62 62 63 63 63 63 64 64 64 65 65 65 65 65 65 65 65 65 65 65 64 64 64 63 63 63 63 63 63 63 63 63 63 64 64 64 64 65 65 65 65 65 65 65 66 66 66 66 66 66 66 66 66 66 66 66 65 65 65 65 65 65 64 64 64 64 64 64 64 64 64 64 64 63 63 63 63 63 63 63 63 63 63 63 63 63 63 63 64 64 64 64 64 64 64 64 64 64 64 64 64 64 64 64 64 64 64 64 64 62 61 61 61 61 61 66 66 67 67 67 67 67 67 67 67 67 67 67 68 68 68 68 68 68 68 68 68 68 69 70 70 70 71 71 72 72 73 73 74 74 74 74 74 74 74 74 74 75 75 75 75 75 75 76 76 76 76 76 76 76 76 76 76 77 76 74 72 72 71 70 69 68 68 68 69 69 69 70 71 71 71 72 72 72 74 76 77 79 79 79 80 80 80 80 80 80 80 80 80 80 80 79 79 72 72 72
64 64 64 64 64 64 64 64 64 64 64 64 64 64 64 63 63 63 63 62 61 61 61 62 62 62 63 62 62 62 63 63 63 62 62 62 62 62 62 62 62 62 63 63 63 64 64 64 65 65 65 65 65 65 65 65 65 65 65 65 65 64 64 64 63 63 63 63 63 63 63 63 64 64 64 65 65 66 66 66 66 66 66 66 66 66 66 66 66 67 67 67 66 66 66 66 66 66 66 66 66 66 65 65 64 64 64 64 64 64 64 64 64 64 64 64 63 63 63 63 63 63 63 63 63 63 63 64 64 64 64 64 64 64 64 64 64 64 64 64 64 64 64 64 64 64 64 64 64 64 62 61 61 61 66 66 66 67 67 67 67 67 67 67 67 67 67 67 68 68 68 68 68 68 68 68 68 68 69 69 70 70 71 71 72 72 72 73 73 74 74 74 74 74 74 74 74 74 74 75 75 75 75 75 75 76 76 76 76 76 76 76 76 76 76 75 75 74 71 70 69 68 68 68 69 69 70 71 72 73 74 74 75 75 76 77 78 79 79 79 80 80 80 80 80 80 80 80 80 80 80 80 80 80 79 78
64 65 64 64 64 64 64 64 64 64 64 64 64 64 64 64 63 63 63 62 62 61 62 62 62 62 63 62 62 62 63 63 63 63 63 63 62 62 62 62 62 62 63 63 64 64 64 65 65 65 65 65 65 65 65 65 65 66 65 65 65 65 64 64 63 63 63 63 63 63 63 64 64 64 64 64 66 66 66 66 67 67 67 67 67 67 67 67 67 67 67 67 67 67 67 67 67 66 66 66 66 66 66 65 65 64 64 64 64 64 64 64 64 64 64 64 64 63 63 63 63 63 63 63 63 63 63 64 64 64 64 64 64 64 64 64 64 64 64 64 64 64 64 64 64 64 64 64 64 63 62 62 62 62 62 66 66 66 66 67 67 67 67 67 67 67 67 68 68 68 68 68 68 68 68 68 68 68 69 69 69 70 70 71 71 72 72 72 73 73 73 74 74 74 74 74 74 74 74 74 75 75 75 75 75 75 75 76 76 76 76 76 76 76 76 76 76 76 72 71 69 68 68 69 69 70 71 72 74 76 76 77 77 78 78 78 79 79 79 79 80 80 80 80 80 80 80 80 80 80 80 80 80 80 80 80
65 65 65 65 64 64 64 64 64 64 64 64 64 64 64 64 64 63 63 63 62 62 62 62 62 63 63 62 62 62 62 63 63 63 63 63 62 62 62 62 62 62 63 63 63 64 64 64 65 65 65 65 65 65 65 65 66 66 65 65 65 65 65 64 64 64 64 64 64 64 64 64 64 64 64 64 66 67 67 67 67 67 67 67 67 67 67 67 67 67 67 67 67 67 67 67 67 67 67 67 67 67 66 66 66 65 65 64 64 65 64 64 64 64 64 64 64 63 63 63 63 63 64 64 64 64 64 64 64 64 64 64 64 64 64 64 64 64 64 64 64 64 64 64 64 64 64 64 64 62 62 61 61 62 66 66 66 66 67 67 67 67 67 67 67 67 67 68 68 68 68 68 68 69 68 68 69 69 69 69 69 70 70 71 71 72 72 72 72 72 73 73 73 73 73 73 73 74 74 74 74 75 75 75 75 75 75 75 75 75 75 75 75 75 76 76 76 76 72 71 70 69 70 70 70 71 71 72 74 76 76 77 77 78 78 78 79 79 79 79 80 80 80 80 80 80 80 80 80 80 80 80 80 80 79 79
65 65 65 65 65 65 64 64 64 64 64 64 64 64 64 64 64 64 64 63 63 63 63 63 63 63 63 62 62 62 62 63 63 63 63 62 62 62 62 62 62 62 62 63 63 63 64 64 65 65 65 65 65 65 65 65 66 66 66 65 65 65 65 65 64 64 64 64 64 64 64 65 65 65 66 66 67 67 67 67 67 67 67 67 67 67 67 67 67 67 67 67 67 67 67 67 67 67 67 67 67 67 67 67 66 66 66 66 66 66 65 64 64 64 64 64 64 64 64 64 64 64 64 64 64 64 64 64 64 64 64 64 64 64 64 64 64 64 64 64 64 64 64 64 64 64 64 64 64 63 62 62 62 66 66 66 66 67 67 67 67 67 67 67 67 67 68 68 68 68 69 69 69 69 69 69 69 69 69 69 69 70 70 70 71 71 71 72 72 72 72 72 72 73 73 73 73 73 73 74 74 75 75 75 75 75 75 75 75 75 75 75 75 75 75 75 75 76 74 72 71 71 71 71 71 72 72 73 75 76 76 77 77 78 78 78 79 79 79 79 80 80 80 80 80 80 80 80 80 80 80 80 80 80 79 78
65 65 65 65 65 65 65 64 64 64 64 64 64 64 64 64 64 64 64 64 63 63 63 63 63 63 63 62 62 62 63 63 63 63 63 62 62 62 62 62 62 62 62 63 63 63 63 64 64 65 65 65 65 65 65 65 66 66 66 66 66 66 65 65 65 65 65 65 65 65 65 65 66 66 66 67 67 67 67 68 68 68 68 68 68 68 68 68 68 68 68 68 67 67 67 67 67 67 67 67 67 68 67 67 67 66 66 66 66 66 66 65 64 64 64 64 64 64 64 64 64 64 64 64 64 64 64 64 64 64 64 64 64 64 64 64 64 64 64 64 64 64 64 64 64 64 64 64 64 64 65 62 62 66 66 66 66 67 67 67 67 67 67 67 67 68 68 68 68 68 69 69 69 69 69 69 69 69 69 69 70 70 70 70 71 71 71 71 71 71 72 72 72 72 72 72 73 73 73 74 74 74 75 75 75 75 75 75 75 75 75 75 75 75 75 75 75 75 74 73 72 72 72 72 72 72 73 74 75 76 76 77 77 78 78 78 79 79 79 79 80 80 80 80 80 80 80 80 80 80 80 80 80 79 78 76
65 65 65 65 65 65 65 65 64 64 64 64 64 64 64 64 64 64 64 64 64 64 63 63 63 63 63 63 62 62 63 63 63 63 63 62 62 62 62 62 62 62 62 62 62 63 63 64 64 65 65 65 65 65 65 66 66 66 66 66 66 66 66 66 66 66 66 66 66 66 66 66 66 66 67 67 67 67 68 68 68 68 68 68 68 68 68 68 68 68 68 68 68 68 68 68 68 68 68 68 68 68 68 67 67 67 67 67 67 67 66 65 64 64 64 64 64 64 64 64 64 64 64 64 64 64 64 64 64 64 64 64 64 64 64 64 64 64 64 64 64 64 64 64 64 64 64 64 64 65 65 65 66 66 66 66 67 67 67 67 67 67 67 68 68 68 68 68 68 68 69 69 69 70 70 70 70 70 70 70 70 70 70 70 70 70 71 71 71 71 71 71 71 72 72 72 72 72 73 73 74 74 74 75 75 75 75 75 75 75 75 75 75 74 75 75 75 75 75 75 75 75 75 75 75 75 75 75 76 76 76 77 77 78 78 78 79 79 79 79 80 80 80 80 80 80 80 80 80 80 80 79 79 79 77 73
65 65 65 65 65 65 65 65 64 64 64 64 64 64 64 64 64 64 64 64 64 64 64 63 63 63 63 63 63 63 63 63 63 63 62 62 62 62 62 62 62 62 62 62 62 63 63 64 64 65 65 65 65 65 66 66 66 66 66 66 66 66 66 66 66 66 66 66 66 66 66 66 66 67 67 67 67 68 68 68 68 68 68 68 68 68 68 68 68 68 68 68 68 68 68 68 68 68 68 68 68 68 68 68 67 67 67 67 67 67 66 65 64 64 64 64 64 64 64 64 64 64 64 64 64 64 64 64 64 64 64 64 64 64 64 64 64 64 64 64 64 64 64 64 64 64 64 64 63 62 62 62 66 66 66 66 67 67 67 67 67 68 68 68 68 68 68 69 69 69 69 69 70 70 70 70 70 70 70 70 70 70 70 70 70 70 71 71 71 71 71 71 71 72 72 72 72 72 73 73 74 74 74 74 75 75 75 75 75 75 74 74 74 74 74 74 74 75 75 75 75 75 75 75 75 75 75 75 75 75 76 76 77 77 78 78 79 79 79 79 79 80 80 80 80 80 80 80 80 80 79 79 79 79 77 73
65 66 66 65 65 65 65 65 65 64 64 64 64 64 64 64 64 64 64 64 64 64 64 64 63 63 63 63 63 63 63 63 63 63 62 62 62 62 62 62 62 62 62 62 62 62 63 63 64 65 65 65 65 65 66 66 66 66 66 66 66 66 66 66 66 66 66 66 66 66 66 67 67 67 67 67 67 68 68 68 68 68 68 68 68 68 68 68 68 68 68 68 68 68 68 68 68 68 68 68 68 68 68 68 67 67 67 67 67 67 66 66 65 64 64 64 64 64 64 64 64 64 64 64 64 64 64 64 64 64 64 64 64 64 64 64 64 64 64 64 64 64 64 64 64 64 64 64 62 61 61 61 61 61 61 67 67 67 67 67 68 68 68 68 68 68 69 69 69 69 70 70 70 70 70 70 70 70 70 70 70 70 70 70 70 71 71 71 71 71 71 71 71 71 72 72 72 72 72 73 74 74 74 74 74 75 75 74 74 74 74 74 74 74 74 74 74 74 74 75 75 75 75 75 75 74 75 75 75 75 76 76 77 77 78 78 79 79 79 79 79 79 79 80 80 80 80 80 79 79 79 79 79 79 77 74
65 66 66 66 65 65 65 65 65 65 64 64 64 64 64 64 64 64 64 64 64 64 64 64 64 64 63 63 63 63 63 63 62 62 62 62 62 62 62 62 62 62 62 62 62 62 63 63 64 64 65 65 65 66 66 66 66 66 66 66 66 66 66 66 66 66 66 66 67 67 67 67 67 67 67 67 68 68 68 68 68 68 68 68 68 69 69 69 69 69 68 68 68 68 68 68 68 68 68 68 68 68 68 68 68 67 67 67 67 67 66 66 65 64 64 64 64 64 64 64 64 64 64 64 64 64 64 64 64 64 64 64 64 64 64 64 64 64 64 64 64 64 64 64 64 64 64 62 62 61 61 61 61 66 61 67 67 67 68 68 68 68 68 68 69 69 69 69 70 70 70 70 70 70 70 70 70 70 70 70 70 70 70 70 70 71 71 71 71 71 71 71 71 71 71 72 72 72 72 73 73 74 74 74 74 74 74 74 74 74 74 74 74 74 74 74 74 74 74 74 75 75 75 74 74 74 74 75 75 75 76 76 77 77 78 78 78 79 79 79 79 79 79 79 79 79 79 79 79 79 79 79 79 78 76 74
66 66 66 66 66 65 65 65 65 65 65 65 64 64 64 64 64 64 64 64 64 64 64 64 64 64 63 63 63 63 62 62 62 62 62 62 62 62 62 62 62 62 62 62 62 62 63 63 64 64 65 65 65 66 66 66 66 66 66 66 66 67 67 67 67 67 67 67 67 67 67 67 67 67 67 67 68 68 68 68 68 68 68 69 69 69 69 69 69 69 69 68 68 68 68 68 68 68 68 68 68 68 68 68 68 68 67 67 67 67 67 66 65 64 64 64 64 64 64 64 64 64 64 64 64 64 64 64 64 64 64 64 64 64 64 64 64 64 64 64 64 64 64 64 64 64 64 62 61 61 61 61 61 61 67 67 67 68 68 68 68 68 68 69 69 69 69 70 70 70 70 70 70 70 70 70 70 70 70 70 70 70 70 70 71 71 71 71 71 71 71 71 71 71 71 71 72 72 72 73 73 74 74 74 74 74 74 74 74 74 74 74 74 74 74 74 74 74 74 74 74 75 74 74 74 74 74 74 75 75 76 76 77 77 78 78 78 79 79 79 79 79 79 79 79 79 79 79 79 79 79 79 78 78 76 74
66 66 66 66 66 66 65 65 65 65 65 65 65 65 64 64 64 64 64 64 64 64 64 64 64 64 63 63 63 62 62 62 62 62 62 62 62 62 62 62 62 62 62 62 62 62 62 63 63 64 64 65 65 65 66 66 66 66 66 66 67 67 67 67 67 67 67 67 67 67 67 67 67 67 67 68 68 68 68 68 68 68 68 69 69 69 69 69 69 69 69 68 68 68 68 68 68 68 68 68 68 68 68 68 68 68 68 67 67 67 67 66 65 64 64 64 64 64 64 64 64 64 64 64 64 64 64 64 64 64 64 64 64 64 64 64 64 64 64 64 64 64 64 64 64 64 65 65 62 61 61 61 61 66 67 67 67 68 68 68 68 69 69 69 69 69 70 70 70 70 70 70 70 70 70 70 70 70 70 70 70 70 71 71 71 71 71 71 71 71 71 71 71 71 71 71 72 72 72 72 73 73 74 74 74 74 74 74 74 74 74 74 74 74 74 74 74 74 74 74 74 74 74 74 74 74 74 74 74 75 75 76 76 77 77 78 78 78 78 79 79 79 79 79 79 79 79 79 79 79 79 78 78 78 76 75
66 66 66 66 66 66 66 66 65 65 65 65 65 65 65 65 65 64 64 64 64 64 64 64 64 64 63 63 63 62 62 62 62 62 62 62 62 62 62 62 62 62 62 62 62 62 62 63 63 63 64 64 65 65 66 66 66 66 66 66 67 67 67 67 67 67 67 67 67 67 67 67 67 67 68 68 68 68 68 68 68 68 69 69 69 69 69 69 69 69 69 69 68 68 68 68 68 68 68 68 68 68 68 68 68 68 68 68 67 67 67 66 65 64 64 64 64 64 64 64 64 64 64 64 64 64 64 64 64 65 65 65 65 64 64 64 64 64 64 64 64 64 64 64 64 65 65 65 62 61 61 61 61 66 67 67 68 68 68 68 69 69 69 69 70 70 70 70 70 71 71 71 71 71 71 71 70 70 70 71 71 71 71 71 71 71 71 71 71 71 71 71 71 71 71 71 72 72 72 72 73 73 73 74 74 74 74 74 74 74 74 74 74 74 74 74 74 74 74 74 74 74 74 74 74 74 74 74 74 74 75 75 76 76 77 77 77 78 78 78 78 78 78 79 79 79 79 79 79 79 78 78 78 77 76 75
66 66 66 66 66 66 66 66 65 65 65 65 65 65 65 65 65 65 64 64 64 64 64 64 64 64 63 63 62 62 62 62 62 62 62 62 62 61 61 61 61 61 62 62 62 62 62 62 63 63 64 64 65 65 66 66 66 66 66 67 67 67 67 67 67 67 67 67 67 67 67 67 67 68 68 68 68 68 68 68 68 68 69 69 69 69 69 69 69 69 69 69 69 69 68 68 68 68 68 68 68 69 68 68 68 68 68 68 67 67 67 66 65 64 64 64 64 64 64 64 64 64 64 64 64 65 65 65 65 65 65 65 65 65 64 64 64 64 64 64 64 64 64 64 65 65 65 65 65 62 62 66 66 67 67 67 68 68 68 69 69 69 69 70 70 70 70 70 71 71 71 71 71 71 71 71 71 71 71 71 71 71 71 71 71 71 71 71 71 71 71 71 71 71 71 71 72 72 72 72 72 72 73 73 74 74 74 74 74 74 74 74 74 74 74 74 74 74 74 74 74 74 74 74 74 74 74 74 74 74 75 75 75 76 76 77 77 77 78 78 78 78 78 78 78 78 78 78 78 78 78 78 78 77 77 76
66 66 66 66 66 66 66 66 66 65 65 65 65 65 65 65 65 65 64 64 64 64 64 64 64 64 63 63 62 62 62 62 62 62 62 61 61 61 61 61 61 61 61 62 62 62 62 62 62 63 63 64 64 65 66 66 66 66 66 67 67 67 67 67 67 67 67 67 67 67 67 68 68 68 68 68 68 68 68 68 68 69 69 69 69 69 69 69 69 69 69 69 69 69 69 68 68 68 68 68 68 69 69 68 68 68 68 68 67 67 67 66 65 64 64 64 64 64 64 64 64 64 65 65 65 65 65 65 65 65 65 65 65 65 65 64 64 64 64 64 64 64 64 65 65 65 65 65 65 65 66 66 66 67 67 67 68 68 69 69 69 69 70 70 70 71 71 71 71 71 71 71 71 71 71 71 71 71 71 71 71 71 71 71 71 71 71 71 71 71 71 71 71 71 71 71 71 71 72 72 72 72 73 73 73 74 74 74 74 74 74 74 74 73 74 74 74 74 74 74 74 74 74 74 74 73 74 74 74 74 74 75 75 75 76 76 77 77 77 77 78 78 78 78 78 78 78 78 78 78 78 77 77 77 77 76
65 65 66 66 66 66 66 66 66 66 66 65 65 65 65 65 65 65 64 64 64 64 64 64 64 63 63 63 62 62 62 62 62 61 61 61 61 61 61 61 61 61 61 62 62 62 62 62 62 63 63 64 64 65 65 66 66 66 66 67 67 67 67 67 67 67 67 67 67 67 68 68 68 68 68 68 68 68 68 67 66 66 66 66 69 69 69 69 69 69 69 69 69 69 69 68 68 68 68 68 68 69 68 68 68 68 68 67 67 67 66 66 65 64 64 64 64 64 64 65 65 65 65 65 65 65 65 65 65 65 65 65 65 65 65 65 65 64 64 64 64 64 64 65 65 65 65 65 65 65 66 66 66 67 67 67 68 68 69 69 69 69 70 70 70 71 71 71 71 71 71 71 71 71 71 71 71 71 71 71 71 71 71 71 71 71 71 71 71 71 71 71 71 71 71 71 71 71 72 72 72 72 72 73 73 74 74 74 73 73 74 74 74 74 74 74 74 74 74 74 74 74 74 74 74 73 73 74 74 74 74 75 75 75 76 76 76 77 77 77 77 77 78 78 78 78 78 78 78 78 78 77 77 77 76 76
65 65 65 66 66 66 66 66 66 66 66 66 65 65 65 65 65 64 64 64 64 64 64 64 63 63 63 62 62 62 61 61 61 61 61 61 61 61 61 61 61 61 61 61 62 62 62 62 62 63 63 64 64 65 65 66 66 66 66 66 67 67 67 64 67 67 67 67 67 67 63 63 68 68 68 68 68 68 67 66 66 66 66 66 66 68 69 69 69 69 69 69 69 69 69 69 68 68 68 68 68 69 68 68 68 68 68 67 67 67 66 66 65 64 64 65 65 65 65 65 65 65 65 65 65 65 65 65 65 66 66 66 66 66 66 65 65 65 65 64 64 64 64 65 65 65 65 65 65 65 66 66 66 67 67 67 68 68 69 69 69 69 70 70 70 71 71 71 71 71 71 71 71 71 71 71 71 71 71 71 71 71 71 71 71 71 71 71 71 71 71 71 71 71 71 71 71 71 71 72 72 72 72 72 73 73 73 73 73 73 73 74 74 74 74 74 74 74 74 74 74 74 74 74 73 73 73 73 74 74 74 74 75 75 75 76 76 76 77 77 77 77 77 77 78 78 78 78 78 78 77 77 77 76 76 76
65 65 65 66 66 66 66 66 66 66 66 66 66 65 65 65 65 64 64 64 64 64 64 63 63 63 62 62 62 61 61 61 61 61 61 61 61 61 61 61 61 61 61 61 61 62 62 62 62 63 63 64 64 65 65 65 66 66 66 66 67 67 64 64 67 67 67 67 63 63 62 63 68 68 68 68 68 68 67 66 66 66 66 66 66 68 69 69 69 69 69 69 69 69 69 69 69 68 68 68 68 68 68 68 68 68 67 67 67 66 66 65 65 65 65 65 65 65 65 65 65 65 65 65 65 65 65 65 66 66 66 66 66 66 66 66 65 65 65 65 64 64 64 65 65 65 65 65 65 65 66 66 66 67 67 67 68 68 68 69 69 69 70 70 70 71 71 71 71 71 71 71 71 71 71 71 71 71 71 71 71 71 71 71 71 71 71 71 71 71 71 71 71 71 71 71 71 71 71 71 72 72 72 72 72 73 73 73 73 73 73 74 74 74 74 74 74 74 74 74 74 74 74 73 73 73 73 73 73 74 74 74 74 75 75 75 76 76 76 77 77 77 77 77 77 77 78 78 78 78 77 77 77 76 76 75
65 65 65 65 66 66 66 66 66 66 66 66 66 65 65 65 64 64 64 64 64 64 64 64 63 62 62 62 61 61 61 61 61 61 61 61 61 61 61 61 61 61 61 61 61 62 62 62 62 62 63 63 64 65 65 65 66 66 66 66 66 67 64 64 65 64 64 64 63 63 62 63 68 68 68 68 68 68 68 66 66 66 66 66 68 69 69 69 69 69 69 69 69 69 69 69 69 68 68 68 68 68 68 68 68 68 67 67 66 66 66 65 65 65 65 65 65 65 65 65 65 65 65 65 65 65 65 66 66 66 66 66 66 66 66 66 66 65 65 65 65 64 64 65 65 65 65 65 65 65 66 66 66 67 67 67 68 68 68 69 69 70 70 70 70 71 71 71 71 71 71 71 71 71 71 71 71 71 71 71 71 71 71 71 71 71 71 71 71 71 71 71 71 71 71 71 71 71 71 71 71 72 72 72 72 72 72 73 73 73 73 74 74 74 74 74 74 74 74 74 74 74 73 73 73 73 73 73 73 74 74 74 74 75 75 75 75 76 76 76 77 77 77 77 77 77 77 77 77 77 77 77 76 76 75 75
65 65 65 65 65 66 66 66 66 66 66 66 65 65 65 65 64 64 64 64 64 64 64 64 62 62 62 62 61 61 61 61 61 61 61 61 61 61 61 61 61 61 61 61 61 61 62 62 62 63 63 64 64 65 65 65 66 66 66 66 66 67 64 64 64 64 63 63 63 63 62 63 68 68 68 68 68 68 68 68 69 69 69 69 69 68 68 69 69 69 69 69 69 69 69 69 69 69 69 69 69 68 68 68 68 68 67 67 66 66 66 65 65 65 65 65 65 65 65 65 65 65 65 65 65 66 66 66 66 66 66 67 67 67 66 66 66 66 65 65 65 65 65 65 65 65 65 65 65 65 66 66 66 67 67 67 68 68 68 69 69 69 70 70 70 71 71 71 71 71 71 71 71 71 71 71 71 71 71 71 71 71 71 71 71 71 71 71 71 71 71 71 71 71 71 71 71 71 71 71 71 71 72 72 72 72 72 72 73 73 73 74 74 75 75 75 75 75 74 74 74 74 74 74 73 73 73 73 73 74 74 74 74 74 75 75 75 75 76 76 76 76 77 77 77 77 77 77 77 77 77 76 76 75 75 74
64 64 65 65 65 65 66 66 66 66 66 65 65 65 65 64 64 64 64 64 64 64 63 63 62 62 62 61 61 61 61 61 61 61 61 61 61 61 61 61 61 61 61 61 61 61 62 62 63 63 63 64 64 65 65 65 66 66 66 66 66 67 67 64 64 64 64 64 64 63 63 63 68 68 68 68 68 68 68 66 67 67 67 67 69 66 66 68 69 69 69 69 69 69 69 69 69 69 69 69 69 69 68 68 68 67 67 67 66 66 66 66 65 65 65 65 65 65 65 65 65 65 66 66 66 66 66 66 66 67 67 67 67 67 67 66 66 66 66 66 65 65 65 65 65 65 65 65 66 66 66 66 66 67 67 67 68 68 68 69 69 69 70 70 70 70 71 71 71 71 71 71 71 71 71 71 71 71 71 71 71 71 71 71 71 71 71 71 71 71 71 71 71 71 71 71 71 71 71 71 71 71 71 72 72 72 72 72 72 73 73 74 74 75 75 75 75 75 75 75 74 74 74 74 74 74 74 74 74 74 74 74 74 74 75 75 75 75 76 76 76 76 76 76 77 77 77 77 77 77 76 76 75 75 74 73
64 64 64 65 65 65 65 65 66 66 65 65 65 65 65 64 64 64 64 64 64 63 63 63 62 62 61 61 61 61 61 61 61 61 61 61 61 61 61 61 61 61 61 61 61 61 62 62 63 63 64 64 64 65 65 65 66 66 66 66 66 67 67 64 64 64 64 64 64 63 68 68 68 68 68 68 68 68 66 69 69 67 67 67 68 66 66 67 69 69 69 69 69 69 69 69 69 69 69 69 69 69 68 68 67 67 67 66 66 66 66 66 65 65 65 65 65 65 65 66 66 66 66 66 66 66 66 66 67 67 67 67 67 67 67 67 67 66 66 66 66 65 65 65 65 65 66 66 66 66 66 66 66 67 67 67 68 68 68 69 69 69 70 70 70 70 70 71 71 71 71 71 71 71 71 71 71 71 71 71 71 71 71 71 71 71 71 71 71 71 71 71 71 71 71 71 71 71 71 71 71 71 71 71 72 72 72 72 72 73 73 74 74 75 75 75 75 75 75 75 75 74 74 74 74 74 74 74 74 74 74 74 74 74 75 75 75 75 75 76 76 76 76 76 76 76 76 76 76 76 76 75 75 74 74 73
64 64 64 64 65 65 65 65 65 65 65 65 65 65 64 64 64 64 64 64 63 63 63 62 62 61 61 61 61 61 61 61 61 61 61 61 61 61 61 61 61 61 61 61 61 61 62 62 63 63 64 64 64 65 65 65 66 66 66 66 66 67 67 64 64 64 63 64 64 64 68 68 68 68 68 68 68 68 66 69 69 67 66 66 66 66 66 67 69 69 69 69 69 69 69 69 69 69 69 69 69 69 68 68 67 66 66 66 66 66 66 66 66 66 66 66 66 66 66 66 66 66 66 66 66 66 67 67 67 67 67 67 67 67 67 67 67 67 66 66 66 66 66 66 66 66 66 66 66 66 66 66 66 67 67 67 68 68 68 69 69 69 69 70 70 70 70 70 71 71 71 71 71 71 71 71 71 71 71 71 71 71 71 71 71 71 71 71 71 71 71 71 71 71 71 71 71 71 71 71 71 71 71 71 71 72 72 72 72 72 73 74 74 75 75 75 75 76 75 75 75 75 75 74 74 74 74 74 74 74 74 74 74 74 74 75 75 75 75 75 75 76 76 76 76 76 76 76 76 76 75 75 74 74 73 72
64 64 64 64 64 65 65 65 65 65 65 65 65 64 64 64 64 64 64 63 63 63 62 62 62 62 61 61 61 61 61 61 61 61 61 61 60 60 61 61 61 61 61 61 61 61 62 62 63 63 64 64 64 65 65 65 66 66 66 66 66 67 65 64 64 64 64 64 64 68 68 68 68 68 68 68 68 68 69 69 69 66 66 65 66 66 66 67 69 69 69 69 69 69 69 69 69 69 69 69 69 68 68 68 67 67 66 66 66 66 66 66 66 66 66 66 66 66 66 66 66 66 66 66 66 67 67 67 67 67 67 67 67 67 67 67 67 67 67 66 66 66 66 66 66 66 66 66 66 66 66 66 67 67 67 67 68 68 68 69 69 69 69 70 70 70 70 71 71 71 71 71 71 71 71 71 71 71 71 71 71 71 71 71 71 71 71 71 71 71 71 71 71 71 71 71 71 70 70 70 70 70 71 71 71 72 72 72 72 73 73 74 75 75 75 76 76 76 76 75 75 75 75 75 74 74 74 74 74 74 74 74 74 74 74 75 75 75 75 75 75 75 75 76 76 76 76 76 76 76 75 74 74 73 72 72
64 64 64 64 64 64 64 65 65 65 65 64 64 64 64 64 64 64 64 63 63 62 62 62 62 62 61 61 61 61 61 61 61 61 61 60 60 60 61 61 61 61 61 61 61 61 62 62 63 63 64 64 64 65 65 65 66 66 66 66 66 66 67 65 64 64 64 64 64 68 68 68 68 68 68 68 68 68 69 69 66 66 66 65 65 66 66 67 69 69 69 69 69 69 69 69 69 69 69 69 69 68 68 68 67 67 67 66 66 66 66 66 66 66 66 66 66 66 66 66 66 66 66 67 67 67 67 67 67 67 67 67 67 67 67 67 67 67 67 67 66 66 66 66 66 66 66 66 66 66 66 67 67 67 67 67 68 68 68 69 69 69 70 70 70 70 70 71 71 71 71 71 71 71 71 71 71 71 71 71 71 71 71 71 71 71 71 71 71 71 71 71 71 71 71 71 70 70 70 70 70 70 70 71 71 72 72 72 73 73 73 74 75 76 76 76 76 76 76 76 76 75 75 75 75 75 75 74 74 74 74 74 74 74 74 75 75 75 75 75 75 75 75 75 75 75 75 75 75 75 74 74 73 73 72 71
64 64 64 64 64 64 64 64 64 64 64 64 64 64 64 64 64 64 64 63 62 62 62 62 62 62 62 61 61 61 61 61 61 61 60 60 60 60 60 61 61 61 61 61 61 61 62 62 63 63 64 64 64 65 65 65 65 66 66 66 66 66 67 67 65 65 65 65 68 68 68 68 68 68 68 68 68 68 69 69 69 66 66 66 66 66 66 68 69 69 70 70 70 70 70 69 69 69 69 69 68 68 68 67 67 67 67 67 66 66 66 66 66 66 66 66 66 66 66 66 66 66 67 67 67 67 67 67 67 67 67 67 68 68 67 67 67 67 67 67 66 66 66 66 66 66 66 66 66 66 67 67 67 67 67 67 68 68 68 69 69 69 70 70 70 71 71 71 71 71 71 71 71 71 71 71 71 71 71 71 71 71 71 71 71 71 71 71 71 71 71 71 71 71 71 70 70 69 69 69 69 69 70 70 71 72 72 72 73 73 74 74 75 76 76 76 76 76 76 76 76 76 75 75 75 75 75 75 75 75 75 74 74 74 74 74 74 74 75 75 75 75 75 75 75 75 75 75 75 75 74 73 73 72 72 71
64 64 64 64 64 64 64 64 64 64 64 64 64 64 64 64 64 64 63 63 62 62 62 62 62 62 62 61 61 61 61 61 61 61 60 60 60 60 60 61 61 61 61 61 61 62 62 62 63 63 64 64 64 65 65 65 65 66 66 66 66 66 67 67 67 67 67 67 68 68 68 68 68 68 68 68 68 69 69 69 69 69 66 66 66 66 68 69 69 70 70 70 70 70 70 70 69 69 69 69 68 68 68 67 67 67 67 67 66 66 66 66 66 66 66 66 66 66 66 66 66 67 67 67 67 67 67 67 67 67 68 68 68 68 68 67 67 67 67 67 67 66 66 67 67 67 67 67 67 67 67 67 67 67 67 68 68 68 68 69 69 69 70 70 70 71 71 71 71 71 71 71 71 71 71 71 71 71 71 71 71 71 71 71 71 71 71 71 71 71 71 71 71 71 71 70 70 69 69 69 69 69 70 70 71 72 72 73 73 73 74 75 75 76 76 76 77 77 76 76 76 76 76 76 75 75 75 75 75 75 75 75 75 74 74 74 74 74 74 74 74 74 74 74 74 74 74 74 74 74 73 73 72 72 71 70
64 64 64 64 64 64 64 64 64 64 64 64 64 64 64 64 64 64 63 63 62 62 62 62 62 62 62 62 62 61 61 61 61 61 61 61 61 61 61 61 61 61 61 61 61 62 62 62 63 63 64 64 64 65 65 65 65 66 66 66 66 66 67 67 67 67 67 68 68 68 68 68 68 68 68 69 69 69 69 69 69 69 69 69 69 69 69 69 69 70 70 70 70 70 70 70 69 69 69 69 68 68 68 67 67 67 67 67 67 67 67 66 66 66 66 66 66 66 66 66 67 67 67 67 67 67 67 67 68 68 68 68 68 68 68 67 67 67 67 67 67 67 67 67 67 67 67 67 67 67 67 67 67 67 67 68 68 68 68 69 69 69 70 70 70 71 71 71 71 71 71 71 71 71 71 71 71 71 71 71 71 71 71 71 71 71 71 71 71 71 71 71 71 72 71 71 70 70 70 70 70 70 70 71 71 72 73 73 73 74 75 75 76 77 77 77 77 77 77 77 76 76 76 76 76 76 75 75 75 75 75 75 75 74 74 74 74 74 74 74 74 74 74 74 74 74 74 74 74 73 73 72 72 71 70 68
63 64 64 64 64 64 64 64 64 64 64 64 64 64 64 64 64 63 63 63 62 62 62 62 62 62 62 62 62 62 62 61 61 60 61 61 61 61 61 61 61 61 61 61 61 62 62 62 63 63 64 64 64 65 65 65 66 66 66 66 66 67 67 67 67 67 67 68 68 68 68 68 68 68 69 69 69 69 69 69 69 69 69 69 69 69 69 69 69 70 70 70 70 70 70 70 70 69 69 69 68 68 68 67 67 67 67 67 67 67 67 67 67 67 66 66 66 66 66 67 67 67 67 67 67 67 67 68 68 68 68 68 68 68 68 67 67 67 67 67 67 67 67 67 67 67 67 67 67 67 67 67 67 67 67 68 68 68 68 69 69 69 70 70 70 71 71 71 71 71 71 71 71 71 71 71 71 71 71 71 71 71 71 71 71 71 71 71 71 71 71 71 72 72 71 71 71 70 70 70 70 70 71 71 72 72 73 73 74 75 75 76 76 77 77 77 77 77 77 77 77 77 76 76 76 76 76 75 75 75 75 75 74 74 74 74 74 74 74 74 74 74 74 74 74 74 73 73 73 73 72 72 71 70 68 66
63 63 64 64 64 64 64 64 64 64 64 64 64 64 64 64 63 63 63 62 62 62 62 62 62 63 63 63 63 63 62 62 61 60 61 61 61 61 61 61 61 61 61 61 61 61 62 62 63 63 64 64 64 65 65 65 66 66 66 66 66 67 67 67 67 67 67 68 68 68 68 68 68 69 69 69 69 69 69 69 69 69 69 69 69 69 69 69 70 70 70 70 70 70 70 70 70 70 69 69 68 68 68 67 67 67 67 67 67 67 67 67 67 67 67 67 67 67 67 67 67 67 67 67 67 67 68 68 68 68 68 68 68 68 68 68 67 67 67 67 67 67 67 67 67 67 67 67 67 67 67 67 67 67 67 68 68 68 68 69 69 69 70 70 70 71 71 71 71 71 71 71 71 71 71 71 71 71 71 71 71 71 71 71 71 71 71 71 71 71 72 72 72 72 71 71 71 71 71 71 71 71 71 72 72 72 73 74 74 75 76 76 77 78 77 77 77 77 77 77 77 77 77 76 76 76 76 76 75 75 75 75 74 74 74 74 74 73 73 73 73 73 73 73 73 73 73 73 72 72 72 71 71 70 67 64
63 63 63 64 64 64 64 64 64 64 64 64 64 64 64 64 63 63 63 62 62 62 62 62 63 63 63 63 63 63 63 62 61 60 61 61 61 62 62 62 61 61 61 61 61 61 62 62 63 63 63 64 64 64 65 65 66 66 66 66 67 67 67 67 67 67 68 68 68 68 68 68 69 69 69 69 69 69 69 69 69 69 69 69 69 69 69 69 70 70 70 70 70 70 70 70 70 70 69 69 68 68 68 68 67 67 67 67 67 67 67 67 67 67 67 67 67 67 67 67 67 67 67 67 67 67 68 68 68 68 68 68 68 68 68 68 67 67 67 67 67 67 67 67 67 67 67 67 67 67 67 67 67 67 67 68 68 68 68 69 69 69 70 70 70 71 71 71 71 71 71 71 71 71 71 71 71 71 71 71 71 71 71 71 71 71 71 71 71 72 72 72 72 72 72 72 72 72 72 72 72 72 72 72 72 73 73 74 75 76 76 77 77 78 78 78 78 78 77 77 77 77 77 77 77 76 76 76 76 75 75 75 74 74 74 74 73 73 73 73 73 73 73 73 73 73 72 72 72 72 71 71 70 68 65 64
63 63 63 64 64 64 64 64 64 64 64 64 64 64 64 64 63 63 63 63 62 62 62 63 63 63 63 63 63 64 63 62 62 61 61 62 62 62 62 62 62 61 61 61 61 61 62 62 63 63 63 64 64 65 65 65 66 66 66 66 67 67 67 67 67 67 68 68 68 68 68 69 69 69 69 69 69 69 69 69 69 69 69 69 69 69 69 69 70 70 70 70 70 70 70 70 70 70 69 69 68 68 68 68 68 68 68 68 68 68 68 68 68 68 68 67 67 67 67 67 67 67 67 67 67 68 68 68 68 68 68 68 68 68 68 68 67 67 67 67 67 67 67 67 67 67 67 67 67 67 67 67 67 67 67 67 68 68 68 69 69 69 70 70 70 70 70 71 71 71 71 71 71 71 71 70 70 70 70 70 70 70 71 71 71 71 71 71 71 72 72 72 72 72 71 71 71 71 71 71 71 71 71 72 72 73 73 74 75 76 76 77 77 78 78 78 78 77 77 77 77 77 77 77 76 76 76 76 76 75 75 75 74 74 74 74 73 73 73 73 73 73 73 73 73 72 72 72 72 72 71 70 69 67 64 63
63 63 63 63 64 64 64 64 64 64 64 64 64 64 64 64 63 63 63 63 63 63 63 63 63 63 63 63 64 64 63 63 62 62 62 62 63 63 62 62 62 62 62 62 62 61 62 62 63 63 63 64 64 65 65 65 66 66 66 67 67 67 67 67 67 68 68 68 68 68 69 69 69 69 69 69 69 69 69 69 69 69 69 69 69 69 69 69 69 70 70 70 70 70 70 70 70 70 69 69 68 68 68 68 68 68 68 68 68 68 68 68 68 68 68 68 68 68 68 67 67 67 67 68 68 68 68 68 68 68 68 68 68 68 68 68 68 67 67 67 67 67 67 67 68 68 67 67 67 67 67 67 67 67 67 67 68 68 68 69 69 69 69 70 70 70 70 70 71 71 71 71 71 71 70 70 70 70 70 70 70 70 70 71 71 71 71 71 71 71 71 72 72 72 71 71 70 70 70 70 71 71 71 72 72 73 73 74 75 76 76 77 77 78 78 78 77 77 77 77 77 77 77 77 76 76 76 76 76 75 75 75 74 74 74 74 73 73 73 73 73 73 73 72 72 72 72 72 71 71 70 69 68 65 64 63
63 63 63 63 64 64 64 64 64 64 64 64 64 64 64 64 63 63 63 63 63 63 63 63 63 63 64 64 64 64 63 63 63 62 63 63 63 63 63 62 62 62 62 62 62 61 62 62 63 63 63 64 64 65 65 65 66 66 66 67 67 67 67 67 67 68 68 68 68 69 69 69 69 69 69 69 69 69 69 69 69 69 69 69 69 69 69 69 69 69 69 70 70 70 70 70 70 69 69 69 68 68 68 68 68 68 68 68 68 68 68 68 68 68 68 68 68 68 68 68 68 67 68 68 68 68 68 68 68 68 68 68 68 68 68 68 68 68 68 68 68 67 68 68 68 68 68 68 67 67 67 67 67 67 67 67 67 68 68 68 69 69 69 70 70 70 70 70 71 71 71 71 71 70 70 70 70 70 70 70 70 70 70 70 71 71 71 71 71 71 71 71 72 72 71 70 70 69 70 70 70 70 71 71 72 73 73 74 75 76 76 77 77 78 78 77 77 77 77 77 77 76 76 76 76 76 76 76 76 75 75 75 74 74 74 74 73 73 73 73 73 73 73 72 72 72 72 71 71 71 69 68 66 64 64 63
63 63 63 63 64 64 64 64 64 64 64 64 64 64 64 64 64 63 63 63 63 63 63 63 64 64 64 64 64 64 64 63 63 63 63 63 64 64 63 63 62 62 62 62 62 61 62 62 63 63 63 64 64 65 65 65 66 67 67 67 67 67 67 67 67 68 68 68 68 69 69 69 69 69 69 69 69 69 69 69 69 69 69 69 69 69 69 69 69 69 69 69 69 69 69 69 69 69 69 69 69 68 68 68 68 68 68 68 68 68 68 68 69 69 68 68 68 68 68 68 68 68 68 68 68 68 68 68 68 68 68 68 68 68 68 68 68 68 68 68 68 68 68 68 68 68 68 68 67 67 67 67 67 67 67 67 67 68 68 68 69 69 69 69 70 70 70 70 71 71 71 71 70 70 70 70 70 70 70 70 70 70 70 70 70 71 71 71 71 71 71 71 71 72 71 70 69 69 69 69 70 70 71 71 72 72 73 74 75 76 76 77 77 78 77 77 77 77 77 77 77 76 76 76 76 76 76 76 76 75 75 75 74 74 74 74 73 73 73 73 73 73 72 72 72 72 72 71 71 70 69 67 65 64 63 63
63 63 63 63 63 64 64 64 64 64 64 64 64 64 64 64 64 63 63 63 63 63 63 64 64 64 64 64 64 64 63 63 63 63 63 63 64 64 63 63 62 62 62 62 62 62 62 62 63 63 64 64 64 65 65 66 66 67 67 67 67 67 67 67 68 68 68 68 68 69 69 69 69 69 69 69 69 69 69 69 69 69 69 69 69 69 69 69 69 69 69 69 69 69 69 69 69 69 69 69 68 68 68 68 68 68 68 68 68 69 69 69 69 69 69 69 68 68 68 68 68 68 68 68 68 68 68 68 68 69 68 68 68 68 68 68 68 68 68 68 68 68 68 68 68 68 68 68 68 67 67 67 67 67 67 67 67 68 68 68 68 69 69 69 70 70 70 70 70 71 71 70 70 70 70 70 70 70 70 70 70 70 70 70 70 70 70 70 71 71 71 71 72 72 71 70 70 69 69 70 70 70 70 71 72 73 73 74 75 75 76 76 77 77 77 77 77 77 77 77 76 76 76 76 76 76 76 76 75 75 75 75 74 74 74 74 73 73 73 73 73 73 72 72 72 72 71 71 70 69 67 65 64 63 63 62
63 63 63 63 63 63 63 64 64 64 64 64 64 64 64 64 64 63 63 63 63 63 64 64 64 64 64 64 64 64 63 63 63 63 63 63 64 64 64 63 63 62 62 62 62 62 62 63 63 63 64 64 64 65 65 66 66 67 67 67 67 67 67 68 68 68 68 68 69 69 69 69 69 69 69 69 69 69 69 69 69 69 69 69 69 69 69 69 69 68 68 68 69 69 69 69 69 69 69 68 68 68 68 68 68 68 68 69 69 69 69 69 69 69 69 69 69 69 68 68 68 68 68 68 68 68 68 68 69 69 69 69 69 68 68 68 68 68 68 68 68 68 68 68 68 68 68 68 68 67 67 67 67 67 67 67 67 67 68 68 68 69 69 69 70 70 70 70 70 71 71 70 70 70 70 70 70 70 70 70 69 69 69 69 69 69 70 70 71 71 71 71 72 72 71 70 70 69 69 70 70 70 70 71 72 73 73 74 74 75 75 76 77 77 77 77 77 77 77 76 76 76 76 76 76 76 76 76 75 75 75 75 74 74 74 74 73 73 73 73 73 72 72 72 72 72 71 70 69 68 66 64 63 63 62 62
63 63 63 63 63 63 63 63 63 64 64 64 64 64 64 64 64 63 63 64 64 64 64 64 64 64 64 64 63 63 63 63 63 63 63 64 64 64 64 63 63 63 62 62 62 62 63 63 63 63 64 64 64 65 65 66 66 67 67 67 67 67 67 68 68 68 68 68 69 69 69 69 69 69 69 69 69 69 69 69 69 69 69 69 69 69 69 69 68 68 68 68 68 68 68 68 68 68 68 68 68 68 68 68 68 68 69 69 69 69 69 69 69 69 69 69 69 69 69 69 69 68 68 68 69 69 69 69 69 69 69 69 69 69 68 68 68 68 68 68 68 68 68 68 68 68 68 68 68 67 67 67 67 67 67 67 67 67 68 68 68 69 69 69 70 70 70 70 70 71 70 70 70 70 70 70 70 70 70 69 69 69 69 69 69 69 69 70 70 71 71 71 72 72 71 70 70 69 70 70 70 70 70 71 72 73 73 73 74 75 75 76 76 77 77 77 77 77 76 76 76 76 76 76 76 76 76 76 75 75 75 75 74 74 74 74 73 73 73 73 73 72 72 72 72 71 71 70 68 66 64 64 63 62 62 61
63 63 63 63 63 63 63 63 63 63 63 63 64 64 64 64 64 63 64 64 64 64 64 64 64 64 64 63 63 63 63 63 63 63 63 64 64 64 64 63 63 63 63 63 63 63 63 63 63 64 64 64 64 65 66 66 66 67 67 67 67 67 68 68 68 68 68 69 69 69 69 69 69 69 69 69 69 69 69 69 69 69 69 69 69 69 69 68 68 67 67 67 67 67 67 68 68 68 68 68 68 68 68 68 68 68 69 69 69 69 69 69 69 69 69 69 69 69 69 69 69 69 69 69 69 69 69 69 69 69 69 69 69 69 69 68 68 68 68 68 68 68 68 68 68 68 68 68 68 68 67 67 67 67 67 67 67 67 68 68 68 69 69 69 70 70 70 70 70 70 70 70 70 70 70 70 70 70 70 69 69 69 69 69 69 68 69 70 70 71 71 71 72 72 71 70 70 70 70 70 70 70 70 71 72 73 73 73 74 74 75 75 76 77 77 76 76 76 76 76 76 76 76 76 76 76 76 75 75 75 75 75 75 74 74 74 73 73 73 73 72 72 72 72 71 71 70 69 67 64 64 63 62 61 61 61
63 63 63 63 63 63 63 63 63 63 63 63 63 63 63 63 63 63 63 64 64 64 64 64 64 64 64 63 63 63 63 63 63 63 63 63 64 64 64 64 63 63 63 63 63 63 63 63 64 64 64 64 65 65 66 66 67 67 67 67 67 68 68 68 68 68 69 69 69 69 69 69 69 69 69 69 69 69 69 69 69 69 69 69 69 69 68 68 68 67 67 67 67 67 67 67 68 68 68 68 68 68 68 68 68 69 69 69 69 69 69 69 69 69 69 69 69 69 69 69 69 69 69 69 69 69 69 69 69 69 69 69 69 69 69 69 69 68 68 68 68 68 68 68 68 68 68 68 68 68 67 67 67 67 67 67 67 67 68 68 68 69 69 69 69 70 70 70 70 70 70 70 70 70 70 70 70 70 70 69 69 69 69 69 69 69 69 70 70 71 71 71 71 71 71 70 70 70 70 70 70 70 71 71 72 73 73 73 74 74 75 75 76 76 76 76 76 76 76 76 76 76 76 76 76 76 75 75 75 75 75 74 74 74 74 73 73 73 72 72 72 72 72 71 71 70 69 67 65 64 63 63 62 61 61 61
