64 64 64 64 64 64 64 64 64 64 64 64 64 64 64 64 64 64 64 64 64 64 64 64 64 64 64 64 64 64 63 63 63 63 63 63 63 63 63 -1 -1 -1 -1 -1 -1 -1 -1 -1 -1 -1 -1 -1 -1 -1 -1 -1 -1 -1 -1 -1 63 63 64 65 67 68 69 69 70 70 70 70 70 70 71 71 71 72 72 72 73 74 74 75 75 75 75 75 76 76 76 76 76 76 76 76 77 77 77 77 77 77 77 77 76 77 77 77 77 77 77 78 78 78 79 79 79 80 80 80 80 81 81 81 81 82 82 82 82 83 83 83 83 84 84 84 84 84 85 85 85 85 86 86 86 87 87 87 88 88 88 89 89 89 89 89 90 90 90 91 91 91 92 92 92 93 93 93 94 94 95 96 96 97 98 99 99 100 100 100 100 101 101 101 101 102 102 102 102 102 103 103 103 103 104 104 104 105 106 106 107 107 108 108 108 108 109 109 109 109 109 109 109 96 89 87 85 84 84 84 83 83 83 83 83 82 79 72 69 69 69 68 68 68 68 68 68 69 69 69 69 69 69 69 69 69 69 69 69 69 69 69 69 69 69 69
64 64 64 64 64 64 64 64 64 64 64 64 64 64 64 64 64 64 64 64 64 64 64 64 64 64 64 64 64 64 64 64 64 63 63 63 63 63 63 63 -1 -1 -1 -1 -1 -1 -1 -1 -1 -1 -1 -1 -1 -1 -1 -1 -1 -1 -1 -1 63 64 64 66 68 69 69 70 71 71 71 70 70 71 71 71 71 72 72 72 73 74 74 75 75 76 76 76 76 76 76 76 76 76 76 77 77 77 77 77 77 77 77 77 77 77 77 77 77 77 77 78 78 78 79 79 79 80 80 80 80 81 81 81 81 82 82 82 83 83 83 83 83 84 84 84 84 85 85 85 85 86 86 86 86 87 86 86 86 87 88 89 89 89 89 89 90 90 90 90 91 91 91 92 92 92 93 93 94 94 95 95 96 97 98 98 99 100 100 100 100 100 101 101 101 101 101 102 102 102 103 103 103 103 104 104 104 105 106 107 107 108 108 108 109 109 109 109 109 109 110 110 110 97 91 87 85 85 84 84 84 83 83 82 82 81 77 71 69 69 68 68 68 68 68 68 68 69 69 69 69 69 69 69 69 69 69 69 69 69 69 69 69 69 69 68
64 64 64 64 64 64 64 64 64 64 64 64 64 64 64 64 64 64 64 64 64 64 64 64 64 64 64 64 64 64 64 64 64 64 64 64 63 63 63 63 -1 -1 -1 -1 -1 -1 -1 -1 -1 -1 -1 -1 -1 -1 -1 -1 -1 -1 -1 63 63 64 65 67 68 69 70 71 72 72 71 71 70 71 71 71 71 71 72 72 73 74 75 75 76 76 76 76 76 76 76 76 76 76 77 77 77 77 77 77 77 77 77 77 77 77 77 77 77 77 78 78 78 78 79 79 79 80 80 80 80 81 81 81 81 82 82 82 83 83 83 83 83 84 84 84 84 85 85 85 85 86 86 86 86 86 86 86 86 86 88 89 87 86 87 89 90 90 90 90 90 91 91 91 92 92 93 93 93 94 94 95 96 96 97 98 99 99 100 100 100 100 100 101 101 101 101 102 102 102 102 103 103 103 104 104 104 105 106 107 108 108 108 109 109 109 110 110 110 110 110 111 111 98 92 89 86 85 84 84 84 83 83 82 81 79 77 71 69 68 68 68 68 68 68 68 69 69 69 69 69 69 69 69 69 69 69 69 69 69 69 69 69 69 69 68
65 65 65 65 65 64 64 64 64 64 64 64 64 64 64 64 64 64 64 64 64 64 64 64 64 64 64 64 64 64 64 64 64 64 64 64 64 63 63 63 63 -1 -1 -1 -1 -1 -1 -1 -1 -1 -1 -1 -1 -1 -1 -1 -1 -1 63 63 64 65 66 68 69 70 71 72 73 72 72 71 70 71 71 71 71 71 72 72 73 74 75 75 76 76 76 76 76 76 76 76 76 76 77 77 77 77 77 77 77 77 77 77 77 77 77 77 77 78 78 78 78 78 79 79 79 79 80 80 80 81 81 81 81 82 82 82 83 83 83 83 84 84 84 84 84 85 85 85 86 86 86 86 86 86 86 86 86 86 88 87 86 86 86 86 90 90 90 90 90 91 91 91 92 92 92 93 93 93 94 95 95 96 97 98 99 99 100 100 100 100 100 100 100 101 101 101 102 102 102 103 103 103 104 104 104 105 106 107 108 108 109 109 110 110 110 110 110 110 111 112 112 113 113 113 113 113 113 84 84 83 82 81 79 78 76 71 68 68 68 68 68 68 68 68 69 69 69 69 69 69 69 69 69 69 69 69 69 69 69 69 69 69 68 68
65 65 65 65 65 65 64 64 64 64 64 64 64 64 64 64 64 64 64 64 64 64 64 64 64 64 64 64 64 64 64 64 64 64 64 64 64 63 63 63 -1 -1 -1 -1 -1 -1 -1 -1 -1 -1 -1 -1 -1 -1 -1 -1 -1 -1 63 64 64 66 67 68 69 70 71 72 74 72 72 71 71 71 71 71 71 72 72 73 74 74 75 76 76 76 76 76 76 76 76 77 77 77 77 77 77 77 77 77 78 77 77 77 77 77 77 77 77 77 78 78 78 78 79 79 79 79 80 80 80 80 81 81 81 82 82 82 83 83 83 83 84 84 84 84 84 85 85 85 86 86 86 86 86 87 86 86 86 87 88 87 86 86 86 86 86 90 90 90 90 91 91 91 92 92 92 93 93 94 94 95 95 96 97 98 99 99 99 99 100 100 100 100 100 100 101 101 101 102 102 102 103 103 104 104 104 105 106 107 108 108 109 110 110 110 110 110 110 111 111 112 113 113 113 113 113 113 113 113 84 83 81 80 78 77 75 71 68 68 68 68 68 68 68 68 68 69 69 69 69 69 69 69 69 69 69 69 69 69 69 69 69 69 68 68
65 65 65 65 65 65 64 64 64 64 64 64 64 64 64 64 64 64 64 64 64 64 64 64 64 64 64 64 64 64 64 64 64 64 64 64 64 63 63 63 -1 -1 -1 -1 -1 -1 -1 -1 -1 -1 -1 -1 -1 -1 -1 -1 -1 63 63 64 65 67 68 69 70 71 72 73 74 73 72 71 71 71 71 71 72 72 72 73 74 75 75 76 76 76 76 76 77 77 77 77 77 77 77 77 77 77 78 78 78 78 77 77 77 77 77 77 77 77 78 78 78 78 78 79 79 79 79 80 80 80 80 81 81 81 82 82 82 83 83 83 84 84 84 84 85 85 85 85 86 86 86 86 87 87 87 87 88 88 88 87 86 86 86 86 86 90 90 90 90 91 91 91 92 92 92 93 93 94 94 95 96 96 97 98 98 98 99 99 99 99 99 99 100 100 100 101 101 101 102 102 102 103 103 104 104 105 106 107 108 108 109 110 110 110 110 111 111 111 112 113 113 113 113 113 113 113 113 113 113 82 80 78 78 77 74 71 68 68 68 68 68 68 68 68 68 68 69 69 69 69 69 69 69 69 69 69 69 69 69 69 69 68 68 68
65 65 65 65 65 65 64 64 64 64 64 64 64 64 64 64 64 64 64 64 64 64 64 64 64 64 64 64 64 64 64 64 64 64 64 64 64 63 63 63 -1 -1 -1 -1 -1 -1 -1 -1 -1 -1 -1 -1 -1 -1 -1 -1 -1 63 64 64 66 68 69 70 71 71 72 73 74 73 72 72 71 71 71 72 72 72 73 74 75 75 76 76 76 76 77 77 77 77 77 77 77 77 77 77 78 78 78 78 78 78 78 77 77 77 77 77 77 77 78 78 78 78 78 79 79 79 79 79 80 80 80 81 81 81 82 82 82 83 83 83 84 84 84 84 85 85 85 85 86 86 86 87 87 87 87 87 88 88 88 87 86 86 86 86 86 86 90 90 90 90 91 91 92 92 93 93 93 94 95 95 96 96 97 97 98 98 98 99 99 99 99 99 99 100 100 100 101 101 101 102 102 103 103 104 104 105 106 107 108 109 109 110 110 111 111 111 111 112 112 113 113 113 113 113 113 113 113 113 113 80 79 78 77 76 74 70 67 67 67 68 68 68 68 68 68 68 68 69 69 69 69 69 69 69 69 69 69 69 69 69 68 68 68 68
65 65 65 65 65 65 65 64 64 64 64 64 64 64 64 64 64 64 64 64 64 64 64 64 64 64 64 64 64 64 64 64 64 64 64 64 64 63 63 -1 -1 -1 -1 -1 -1 -1 -1 -1 -1 -1 -1 -1 -1 -1 -1 -1 63 63 64 66 67 68 70 70 71 72 73 74 75 74 72 72 71 71 72 72 72 73 74 74 75 75 76 76 76 77 77 77 77 77 77 77 77 77 78 78 78 78 78 78 78 78 78 77 77 77 77 77 77 77 77 78 78 78 78 78 79 79 79 79 79 80 80 80 81 81 81 82 82 82 83 83 84 84 84 84 85 85 85 85 86 86 86 87 87 87 87 87 88 88 88 87 87 87 87 87 89 86 90 90 90 90 91 91 92 92 93 93 94 94 95 95 96 96 97 97 98 98 98 98 98 98 98 99 99 99 100 100 100 101 101 101 102 103 103 104 104 105 106 107 108 109 109 110 111 111 111 111 112 112 113 113 113 113 113 113 113 113 113 113 113 113 78 77 76 75 73 70 67 67 67 67 68 68 68 68 68 68 68 68 69 69 69 69 69 69 69 69 69 69 69 68 68 68 68 68
65 65 65 65 65 65 65 65 64 64 64 64 64 64 64 64 64 64 64 64 64 64 64 64 64 64 64 64 64 64 64 64 64 64 64 64 63 63 63 -1 -1 -1 -1 -1 -1 -1 -1 -1 -1 -1 -1 -1 -1 -1 -1 -1 63 64 64 66 68 69 70 70 71 72 72 73 74 73 72 72 72 72 72 72 73 73 74 74 75 75 76 76 76 76 76 77 77 77 77 77 77 77 78 78 78 78 78 78 78 78 78 77 77 77 77 77 77 77 77 78 78 78 78 78 78 79 79 79 79 80 80 80 80 81 81 82 82 82 83 83 84 84 84 85 85 85 85 86 86 86 86 87 87 87 87 87 88 88 88 88 87 87 87 88 89 90 90 90 90 91 91 91 92 92 93 93 94 95 95 96 96 96 97 97 97 97 98 98 98 98 98 98 98 99 99 99 100 100 101 101 102 102 103 104 104 105 106 107 108 108 109 110 110 111 111 111 112 112 113 113 113 113 113 113 113 113 113 113 113 77 77 76 76 75 73 70 67 67 67 67 68 68 68 68 68 68 68 68 68 68 68 68 68 68 69 69 69 69 69 68 68 68 68 68
65 65 65 65 65 65 65 65 64 64 64 64 65 64 64 64 64 64 64 64 64 64 64 64 64 64 64 64 64 64 64 64 64 64 64 63 63 63 63 -1 -1 -1 -1 -1 -1 -1 -1 -1 -1 -1 -1 -1 -1 -1 -1 63 63 64 66 67 68 69 70 70 71 71 72 72 73 73 72 72 72 72 72 73 73 74 74 75 75 75 76 76 76 76 76 76 77 77 77 77 77 77 78 78 78 78 78 78 78 78 77 77 77 77 77 77 77 77 77 77 78 78 78 78 78 79 79 79 79 80 80 80 80 81 81 82 82 82 83 83 84 84 84 85 85 85 85 86 86 86 87 87 87 87 87 87 88 88 88 88 88 88 88 88 89 90 90 90 90 91 91 91 92 92 93 94 94 95 95 96 96 96 97 97 97 97 97 97 97 98 98 98 98 98 99 99 99 100 100 101 102 102 103 103 104 105 106 106 107 108 109 109 110 110 111 111 112 112 113 113 113 113 113 113 113 113 113 113 74 75 75 76 76 75 73 70 67 67 67 67 68 68 68 68 68 68 68 68 68 68 68 68 68 68 68 69 69 69 68 68 68 68 68 68
65 65 65 65 65 65 65 65 65 65 65 65 65 64 64 64 64 64 64 64 64 64 64 64 64 64 64 64 64 64 64 64 64 64 63 63 63 63 -1 -1 -1 -1 -1 -1 -1 -1 -1 -1 -1 -1 -1 -1 -1 -1 -1 63 64 65 67 68 69 69 70 70 71 71 72 72 72 72 72 72 72 72 73 73 74 74 74 75 75 75 75 76 76 76 76 76 76 77 77 77 77 77 77 78 78 78 78 78 78 78 77 77 77 77 77 77 77 77 77 77 77 78 78 78 78 78 79 79 79 79 80 80 80 80 81 81 82 82 83 83 83 84 84 85 85 85 86 86 86 87 87 87 87 87 87 88 88 88 88 89 88 88 88 88 90 90 90 86 90 91 91 91 92 92 93 94 94 95 95 96 96 96 97 97 97 97 97 97 97 97 97 98 98 98 98 99 99 100 100 101 101 102 103 103 104 105 105 106 107 108 108 109 109 110 111 111 112 112 113 113 113 113 113 113 113 113 113 68 69 71 73 75 75 74 73 69 67 67 67 67 67 68 68 68 68 68 68 68 68 68 68 68 68 68 68 68 68 68 68 68 68 68 68 68
65 65 65 65 65 65 65 65 65 65 65 65 65 65 64 64 64 64 64 64 64 64 64 64 64 64 64 64 64 64 64 64 64 64 63 63 63 63 -1 -1 -1 -1 -1 -1 -1 -1 -1 -1 -1 -1 -1 -1 -1 -1 63 64 64 66 68 69 69 70 70 70 71 71 71 72 72 72 72 73 73 73 74 74 74 74 74 75 75 75 75 75 76 76 76 76 76 76 77 77 77 77 77 78 78 78 78 78 78 77 77 77 77 77 77 77 77 77 77 77 77 77 78 78 78 78 79 79 79 79 79 80 80 80 81 81 82 82 83 83 83 84 84 85 85 86 86 86 87 87 87 87 87 87 87 88 88 88 88 89 89 88 88 89 90 90 86 86 91 91 91 92 92 93 93 94 95 95 96 96 97 97 96 96 96 96 96 97 97 97 97 97 97 98 98 98 98 99 100 101 101 102 103 103 104 104 105 106 107 107 108 108 109 110 110 111 112 112 113 113 113 113 113 113 113 113 66 66 66 67 70 73 75 74 72 69 68 67 67 67 67 67 68 68 68 68 68 68 68 68 68 68 68 68 68 68 68 68 68 68 68 68 68 68
65 65 65 65 65 65 65 65 65 65 65 65 65 64 64 64 64 64 64 64 64 64 64 64 64 64 64 64 64 64 64 64 63 63 63 63 63 -1 -1 -1 -1 -1 -1 -1 -1 -1 -1 -1 -1 -1 -1 -1 -1 63 64 64 66 68 69 69 70 70 70 71 71 71 71 72 72 72 72 72 73 73 73 74 74 74 74 75 75 75 75 75 75 76 76 76 76 76 77 77 77 77 77 77 78 78 77 77 77 77 77 77 77 77 77 77 77 77 77 77 77 78 78 78 78 78 79 79 79 79 80 80 80 80 81 81 82 82 83 83 83 84 84 85 85 86 86 86 87 87 87 87 87 87 87 88 88 88 88 88 89 89 89 89 90 87 86 86 87 91 91 91 92 92 93 94 94 95 95 96 96 96 96 96 96 96 96 96 96 97 97 97 97 98 98 98 99 99 100 100 101 102 102 103 104 104 105 106 107 107 108 108 109 110 110 111 112 112 112 113 113 113 113 113 113 66 66 66 66 67 69 71 74 72 70 68 67 67 67 67 67 67 67 68 68 68 68 68 68 68 68 68 68 68 68 68 68 68 68 68 68 68 68 68
65 65 65 65 65 65 65 65 65 65 65 65 64 64 64 64 64 64 64 64 64 64 64 64 64 64 64 64 64 64 63 63 63 63 63 63 -1 -1 -1 -1 -1 -1 -1 -1 -1 -1 -1 -1 -1 -1 -1 -1 63 63 64 66 68 69 69 70 70 70 71 71 71 71 71 72 72 72 72 72 73 73 73 74 74 74 74 74 75 75 75 75 75 75 76 76 76 76 76 77 77 77 77 77 77 77 77 77 77 77 77 77 77 77 77 77 77 77 77 78 78 78 78 78 78 78 79 79 79 80 80 80 80 81 81 81 82 82 83 83 83 84 84 85 85 86 86 86 87 87 87 87 87 87 87 88 88 88 88 88 89 89 89 90 90 87 87 87 87 91 91 91 92 92 93 93 94 94 95 95 96 96 96 96 96 96 96 96 96 96 97 97 97 97 98 98 99 99 100 100 101 101 102 103 104 104 105 106 107 107 108 108 109 110 110 111 111 112 112 112 113 113 113 65 66 66 66 66 66 67 68 69 71 70 69 68 113 67 67 67 67 67 67 67 67 68 68 68 68 68 68 68 68 68 68 68 68 68 68 68 68 68 68 68
65 65 65 65 65 65 65 65 65 65 65 64 64 64 64 64 64 64 64 64 64 64 64 64 64 64 64 64 63 63 63 63 63 63 -1 -1 -1 -1 -1 -1 -1 -1 -1 -1 -1 -1 -1 -1 -1 -1 -1 -1 63 64 66 68 69 70 70 71 71 71 71 71 71 71 71 71 72 72 72 72 73 73 73 74 74 74 74 74 75 75 75 75 75 75 75 76 76 76 76 77 77 77 77 77 77 77 77 77 77 77 77 77 77 77 77 77 77 77 78 78 78 78 78 78 78 78 79 79 79 80 80 80 80 81 81 81 82 82 83 83 83 84 84 85 85 86 86 87 87 87 87 87 87 87 88 88 88 88 88 88 89 89 89 90 90 90 87 87 90 91 91 91 91 92 92 93 93 94 94 95 95 96 96 96 96 96 96 96 96 96 96 97 97 97 98 98 99 99 99 100 100 101 102 103 104 104 105 106 107 107 108 108 109 109 110 111 111 111 112 112 113 99 65 65 66 66 66 66 66 67 67 68 68 68 113 113 113 67 67 97 97 67 67 67 67 67 68 68 68 68 68 68 68 68 68 68 68 68 68 68 68 68 68 68
65 65 -1 -1 -1 -1 64 65 65 65 65 64 64 64 64 64 64 64 64 64 64 64 64 64 64 64 63 63 63 63 63 63 63 -1 -1 -1 -1 -1 -1 -1 -1 -1 -1 -1 -1 -1 -1 -1 -1 -1 -1 63 64 65 67 69 70 70 71 71 71 71 71 71 71 71 71 71 72 72 72 72 73 73 73 74 74 74 74 74 74 75 75 75 75 75 75 76 76 76 76 76 77 77 77 77 77 77 77 77 77 77 77 77 77 77 77 77 77 78 78 78 78 78 78 78 78 78 79 79 79 80 80 80 81 81 81 82 82 82 83 83 83 84 84 85 85 86 86 87 87 87 87 87 87 88 88 88 88 88 88 88 89 89 89 90 90 89 88 88 88 90 91 91 91 92 92 93 93 94 94 95 95 95 95 95 95 95 96 96 96 96 96 96 97 97 98 98 99 99 99 100 100 101 102 103 103 104 105 106 106 107 108 108 109 109 110 110 111 111 112 112 112 65 65 66 66 66 66 66 66 66 67 67 67 113 113 113 113 113 113 99 100 67 67 67 67 67 67 68 68 68 68 68 68 68 68 68 68 68 68 68 68 68 68 68
65 -1 -1 -1 -1 -1 -1 64 65 65 65 64 64 64 64 64 64 64 64 64 64 64 64 64 63 63 63 63 63 63 -1 -1 -1 -1 -1 -1 -1 -1 -1 -1 -1 -1 -1 -1 -1 -1 -1 -1 -1 -1 63 64 64 67 68 70 70 71 71 71 72 71 71 71 71 71 71 71 72 72 72 72 72 73 73 73 74 74 74 74 74 74 74 75 75 75 75 75 75 76 76 76 76 76 77 77 77 77 77 77 77 77 77 77 77 77 77 77 78 78 78 78 78 78 78 78 78 78 79 79 79 80 80 80 81 81 81 82 82 82 83 83 83 84 84 85 85 86 86 87 87 87 87 87 88 88 88 88 88 88 88 88 89 89 89 90 90 88 88 88 88 89 91 91 91 91 92 92 93 94 94 94 95 95 95 95 95 95 95 95 95 96 96 96 97 97 97 98 98 99 99 100 100 101 102 103 103 104 105 106 106 107 108 108 109 109 110 110 111 111 111 112 112 65 65 66 66 66 66 66 66 67 67 67 113 113 113 113 113 113 113 113 113 67 67 67 68 68 67 67 67 68 68 68 68 68 68 68 68 68 68 68 68 68 68 68
65 -1 -1 -1 -1 -1 -1 -1 -1 64 65 64 64 64 64 64 64 64 64 64 64 64 64 63 63 63 63 63 63 -1 -1 -1 -1 -1 -1 -1 -1 -1 -1 -1 -1 -1 -1 -1 -1 -1 -1 -1 -1 63 63 64 67 68 69 70 71 71 71 72 72 71 71 71 71 71 71 71 72 72 72 72 72 73 73 73 73 73 73 74 74 74 74 74 74 75 75 75 75 75 76 76 76 76 76 76 77 77 77 77 77 77 77 77 77 77 77 78 78 78 78 78 78 78 78 78 78 79 79 79 79 80 80 80 81 81 81 82 82 82 83 83 84 84 84 85 85 86 86 86 87 87 87 88 88 88 88 88 88 88 88 89 89 89 89 89 90 90 88 88 88 88 90 91 91 91 92 92 93 93 94 94 95 95 95 95 95 95 95 95 95 95 96 96 96 97 97 98 98 99 99 100 100 101 102 103 103 104 105 105 106 107 107 108 109 109 110 111 111 111 111 111 112 65 65 66 66 66 66 66 67 67 67 67 113 113 113 113 113 113 113 113 113 67 67 68 68 68 68 67 67 67 68 68 68 68 68 68 68 68 68 68 68 68 68 68
65 65 -1 -1 -1 -1 -1 -1 -1 -1 65 64 64 64 64 64 64 64 64 64 64 64 63 63 63 63 63 63 -1 -1 -1 -1 -1 -1 -1 -1 -1 -1 -1 -1 -1 -1 -1 -1 -1 -1 -1 -1 63 64 64 66 68 69 70 71 71 71 72 72 72 72 71 71 71 71 71 71 72 72 72 72 72 72 73 73 73 73 73 73 73 73 74 74 74 74 75 75 75 75 75 76 76 76 76 76 76 76 76 77 77 77 77 77 77 77 77 78 78 78 78 78 78 78 78 78 79 79 79 79 80 80 80 80 81 81 81 82 82 82 83 83 84 84 84 85 85 86 86 86 87 87 87 88 88 88 88 88 88 88 88 89 89 89 89 89 89 90 88 88 88 88 89 91 91 91 92 92 93 93 94 94 95 95 95 95 95 95 95 95 95 95 95 96 96 97 97 97 98 98 99 100 100 101 102 103 103 104 105 105 106 107 107 108 109 109 110 111 111 111 111 111 111 65 66 66 66 66 66 66 67 67 67 67 113 113 113 113 113 113 113 113 113 113 67 68 68 68 68 67 67 67 67 67 68 68 68 68 68 68 68 68 68 68 68 68
65 -1 -1 -1 -1 -1 -1 -1 -1 -1 65 64 64 64 64 64 64 64 64 63 63 63 63 63 63 63 -1 -1 -1 -1 -1 -1 -1 -1 -1 -1 -1 -1 -1 -1 -1 -1 -1 -1 -1 -1 -1 63 64 65 67 68 69 70 71 71 72 72 72 72 72 72 71 71 71 71 71 71 72 72 72 -1 -1 -1 -1 -1 -1 73 73 73 73 73 73 73 74 74 74 74 75 75 75 75 76 76 76 76 76 76 76 76 77 77 77 77 77 77 78 78 78 78 78 78 78 79 79 79 79 79 79 79 80 80 80 80 81 81 81 82 82 82 83 83 84 84 84 85 85 86 86 86 87 87 87 88 88 88 88 88 88 88 88 89 89 89 89 89 89 89 89 88 88 87 88 90 91 91 92 92 93 93 94 94 95 95 95 95 95 94 94 94 94 95 95 95 96 96 97 97 98 98 99 100 100 101 102 102 103 104 104 105 106 106 107 108 109 109 110 111 111 111 111 111 111 65 66 66 66 66 66 67 67 67 67 67 113 113 113 113 113 113 113 113 113 113 113 68 68 68 68 67 67 67 67 67 67 67 68 68 68 68 68 68 68 68 68 68
64 -1 -1 -1 -1 -1 -1 -1 -1 64 64 64 64 64 64 64 64 -1 -1 -1 -1 -1 -1 -1 -1 -1 -1 -1 -1 -1 -1 -1 -1 -1 -1 -1 -1 -1 -1 -1 -1 -1 -1 -1 -1 -1 63 64 64 65 67 68 69 70 70 71 71 71 71 72 72 71 71 71 71 71 71 71 71 72 72 -1 -1 -1 -1 -1 -1 -1 72 72 72 72 73 73 73 74 74 74 74 75 75 75 75 76 76 76 76 76 76 76 76 77 77 77 77 77 78 78 78 78 78 78 79 79 79 79 79 79 79 80 80 80 80 80 81 81 81 82 82 82 83 83 83 84 84 85 85 85 86 86 87 87 87 88 88 88 88 88 88 88 88 89 89 89 89 89 89 89 89 88 87 87 87 90 91 91 92 92 93 93 94 94 94 94 94 94 94 94 94 94 94 94 94 94 94 96 97 97 98 98 99 99 100 101 101 102 103 104 104 105 106 106 107 108 108 109 110 110 111 111 111 111 110 65 66 66 66 66 66 67 67 67 67 67 113 113 113 113 113 113 113 113 113 113 113 68 68 68 67 67 67 67 67 67 67 67 67 68 68 68 68 68 68 68 68 68
-1 -1 -1 -1 -1 -1 -1 -1 -1 -1 64 64 64 64 64 64 -1 -1 -1 -1 -1 -1 -1 -1 -1 -1 -1 -1 -1 -1 -1 -1 -1 -1 -1 -1 -1 -1 -1 -1 -1 -1 -1 -1 -1 63 63 64 65 66 67 68 69 70 70 71 71 71 71 71 71 71 71 71 71 71 71 71 71 70 -1 -1 -1 -1 -1 -1 -1 -1 72 72 72 72 72 73 73 73 74 74 74 74 75 75 75 75 75 76 76 76 76 76 76 77 77 77 77 77 78 78 78 78 78 78 79 79 79 79 79 79 79 80 80 80 80 81 81 81 82 82 82 82 83 83 83 84 84 84 85 85 86 86 87 87 87 88 88 88 88 88 88 88 88 89 89 89 89 89 89 89 89 88 87 87 87 87 90 91 91 92 92 93 93 94 94 94 94 94 94 94 94 94 94 94 94 93 93 93 97 97 97 98 99 99 100 100 101 102 103 103 104 105 105 106 107 107 108 109 109 110 111 110 110 110 110 65 66 66 66 66 66 67 67 67 67 113 113 113 113 113 113 113 113 113 113 113 113 67 67 67 67 67 67 67 67 67 67 67 67 68 68 68 68 68 68 68 68 68
-1 -1 -1 -1 -1 -1 -1 -1 -1 -1 64 64 64 64 64 64 -1 -1 -1 -1 -1 -1 -1 -1 -1 -1 -1 -1 -1 -1 -1 -1 -1 -1 -1 -1 -1 -1 -1 -1 -1 -1 -1 -1 63 64 64 64 65 66 67 68 69 69 70 70 71 71 71 71 71 71 71 71 71 71 71 71 71 70 70 -1 -1 -1 -1 -1 -1 -1 72 72 72 72 72 72 73 73 73 73 74 74 74 75 75 75 75 75 76 76 76 76 76 77 77 77 77 77 78 78 78 78 78 79 79 79 79 79 79 79 80 80 80 80 80 81 81 81 82 82 82 82 83 83 83 83 84 84 84 85 85 86 87 87 87 88 88 88 88 88 88 88 89 89 89 89 88 88 88 88 89 89 87 87 87 87 90 91 91 92 92 93 93 93 94 94 94 94 94 94 94 94 94 94 94 92 92 92 96 97 97 98 98 99 99 100 101 102 102 103 104 104 105 106 106 107 108 109 109 110 110 110 110 109 109 65 66 66 66 66 66 67 67 67 67 113 113 113 113 113 114 113 113 113 113 113 113 113 67 67 67 67 67 67 67 67 67 67 67 67 68 68 68 68 68 68 68 67
-1 -1 -1 -1 -1 -1 -1 -1 -1 -1 64 64 64 64 64 64 -1 -1 -1 -1 -1 -1 -1 -1 -1 -1 -1 -1 -1 -1 -1 -1 -1 -1 -1 -1 -1 -1 -1 -1 -1 -1 -1 63 64 64 65 65 66 67 67 68 68 69 70 70 70 70 71 71 71 71 71 71 71 71 71 71 71 71 71 -1 -1 -1 -1 -1 -1 -1 72 72 72 72 72 72 73 73 73 73 73 74 74 74 75 75 75 75 75 76 76 76 76 76 77 77 77 77 78 78 78 78 78 79 79 79 79 79 79 80 80 80 80 80 80 81 81 81 82 82 82 82 82 83 83 83 83 84 84 85 85 86 87 87 87 88 88 88 88 88 88 88 89 89 89 89 88 88 88 88 88 88 88 87 87 87 90 90 91 91 92 92 93 93 94 94 94 94 94 94 94 94 94 94 94 91 91 96 96 97 97 98 98 99 99 100 101 101 102 103 103 104 105 105 106 107 108 108 109 109 110 110 109 109 108 65 66 66 66 66 66 67 67 67 67 113 113 113 113 114 114 114 113 113 113 113 113 113 112 111 110 110 109 67 67 67 67 67 67 67 68 68 68 68 68 68 67 67
-1 -1 -1 -1 -1 -1 -1 -1 -1 64 64 64 64 64 64 64 -1 -1 -1 -1 -1 -1 -1 -1 -1 -1 -1 -1 -1 -1 -1 -1 -1 -1 -1 -1 -1 -1 -1 -1 -1 -1 63 63 64 64 65 66 67 67 68 68 68 69 69 70 70 70 70 70 71 71 71 71 71 71 71 71 71 71 71 71 -1 -1 -1 -1 -1 -1 71 72 72 72 72 72 72 72 73 73 73 73 74 74 74 74 75 75 75 75 75 76 76 76 77 77 77 77 78 78 78 78 78 79 79 79 79 79 80 80 80 80 80 80 80 81 81 81 82 82 82 82 82 83 83 83 83 84 84 84 85 86 86 87 87 88 88 88 88 88 88 88 89 89 89 88 88 88 88 88 88 89 89 87 87 87 87 87 91 91 92 92 93 93 93 93 93 93 93 93 94 94 94 93 89 89 88 88 89 90 91 91 92 92 93 94 96 98 100 102 103 104 105 104 104 104 103 103 105 107 108 108 108 108 108 65 66 66 66 66 66 67 67 67 67 113 113 113 113 114 114 114 113 113 113 113 113 113 113 112 111 110 110 67 67 67 67 67 67 67 67 67 68 68 68 67 67 67
-1 -1 -1 -1 -1 -1 -1 -1 -1 64 64 64 64 64 64 64 63 -1 -1 -1 -1 -1 -1 -1 -1 -1 -1 -1 -1 -1 -1 -1 -1 -1 -1 -1 -1 -1 -1 -1 -1 63 63 64 64 65 66 67 67 67 68 68 68 68 69 69 70 70 70 70 70 70 70 71 71 71 71 71 71 71 71 71 70 -1 -1 -1 -1 70 71 71 72 72 72 72 72 72 72 72 72 73 73 73 74 74 74 74 74 75 75 75 76 76 76 77 77 77 78 78 78 78 78 79 79 79 79 79 80 80 80 80 80 80 81 81 81 81 82 82 82 82 82 83 83 83 83 83 84 84 85 86 86 87 87 88 88 88 88 88 89 88 88 88 88 88 88 88 88 88 88 89 89 87 87 87 87 86 91 91 92 92 92 93 93 93 93 93 93 93 93 93 93 88 87 86 85 85 84 84 83 83 82 80 72 89 91 93 95 98 102 103 104 103 101 98 65 65 65 65 65 65 106 107 108 66 66 66 66 66 66 67 67 67 67 113 113 113 113 114 114 114 114 113 113 113 113 113 113 113 112 111 110 67 67 67 67 67 67 67 67 67 67 67 67 67 67 67
64 -1 -1 -1 -1 64 64 64 64 64 64 64 64 64 64 64 63 63 63 -1 -1 -1 -1 -1 -1 -1 -1 -1 -1 -1 -1 -1 -1 -1 -1 -1 -1 -1 -1 -1 63 63 64 64 65 66 67 67 68 68 68 68 68 68 69 69 69 69 70 70 70 70 70 70 70 70 70 70 70 70 70 70 70 70 -1 -1 70 71 71 71 71 72 72 72 72 72 72 72 72 72 73 73 73 73 74 74 74 74 75 75 75 76 76 77 77 77 78 78 78 78 78 79 79 79 79 79 80 80 80 80 80 80 81 81 81 81 82 82 82 82 82 83 83 83 83 83 84 84 85 85 86 87 87 87 88 88 88 88 89 88 88 88 88 88 88 88 88 88 89 89 89 89 88 87 87 86 86 91 92 92 92 92 92 93 93 93 93 93 93 93 93 88 86 84 83 82 82 80 79 77 75 71 68 69 89 91 93 95 99 103 104 102 97 66 65 65 65 65 65 65 65 106 108 66 66 66 66 66 66 67 67 67 67 113 113 113 113 114 114 114 114 114 114 113 113 113 113 113 113 111 111 105 67 67 67 67 67 67 67 67 67 67 67 67 67 67
64 64 64 64 64 64 64 64 64 64 64 64 64 64 64 64 64 63 63 63 -1 -1 -1 -1 -1 -1 -1 -1 -1 -1 -1 -1 -1 -1 -1 -1 -1 -1 63 63 64 64 64 65 66 67 67 68 68 68 68 68 68 68 68 68 69 69 69 70 70 70 70 70 70 70 70 70 70 70 70 70 70 70 70 71 71 71 71 71 71 71 72 72 72 72 72 72 72 72 72 72 73 73 73 73 73 74 74 75 75 76 76 77 77 77 78 78 78 78 78 79 79 79 79 79 80 80 80 80 81 81 81 81 81 81 82 82 82 82 82 83 83 83 83 83 83 84 85 85 86 86 87 87 88 88 88 88 89 88 88 88 88 88 88 88 88 89 89 89 89 89 89 90 90 90 90 91 91 92 92 92 92 92 92 93 93 93 93 93 93 87 84 83 82 81 80 78 77 74 71 68 65 65 65 89 92 93 96 102 104 100 65 65 65 65 65 65 65 65 65 105 108 66 66 66 66 66 66 67 67 67 67 113 113 113 113 114 114 114 114 114 114 114 114 114 114 113 113 112 111 109 105 67 67 67 67 67 67 67 67 67 67 67 67 66
64 64 64 64 64 64 64 64 64 64 64 64 64 64 64 64 63 63 63 -1 -1 -1 -1 -1 -1 -1 -1 -1 -1 -1 -1 -1 -1 -1 -1 -1 -1 63 63 64 64 64 64 65 65 66 67 68 68 68 68 68 68 68 68 69 69 69 69 69 70 70 70 70 70 70 70 70 70 70 70 70 70 70 70 70 70 71 71 71 71 71 71 71 71 72 72 72 72 72 72 72 72 72 73 73 73 73 74 74 75 75 76 76 77 77 77 78 78 78 78 78 79 79 79 79 80 80 80 80 80 81 81 81 81 81 81 82 82 82 82 82 83 83 83 83 84 84 85 85 86 86 87 87 87 88 88 88 89 89 88 88 88 88 88 89 89 89 89 89 89 89 90 90 90 90 91 91 91 90 89 88 88 87 87 87 86 86 86 86 86 83 82 81 80 78 77 75 74 72 69 67 66 65 65 65 86 86 65 89 91 65 65 65 65 65 65 65 65 65 65 66 66 66 66 66 66 67 67 67 67 67 67 113 113 113 113 113 114 114 114 114 114 114 114 114 114 113 113 112 111 107 67 67 67 67 67 67 67 67 67 67 67 67 66 66
64 64 64 64 64 64 64 64 64 64 64 64 64 64 64 63 63 63 -1 -1 -1 -1 -1 -1 -1 -1 -1 -1 -1 -1 -1 -1 -1 -1 -1 -1 63 63 63 64 64 64 64 65 65 66 67 68 68 68 68 69 69 69 69 69 69 69 69 69 70 70 70 70 70 70 70 70 70 70 70 70 70 70 70 70 70 70 70 71 71 71 71 71 71 71 71 72 72 72 72 72 72 72 72 72 73 73 73 74 74 75 76 76 77 77 77 78 78 78 78 78 79 79 79 79 79 80 80 80 80 80 81 81 81 81 81 82 82 82 82 82 83 83 83 83 84 84 85 85 86 86 87 87 87 88 88 88 89 89 89 89 89 89 89 89 89 89 89 89 89 90 90 90 90 90 91 91 91 89 87 86 86 85 85 84 83 83 83 82 82 71 72 73 74 73 72 72 71 70 68 67 66 66 66 65 65 65 65 65 65 65 65 65 65 65 65 65 65 65 66 66 66 66 66 66 67 67 67 67 67 68 68 81 113 113 113 113 114 114 114 114 114 114 114 114 113 113 113 112 111 67 67 67 67 67 67 67 67 67 67 67 67 66 66 65
64 64 64 64 64 64 64 64 64 64 64 64 64 64 63 63 63 -1 -1 -1 -1 -1 -1 -1 -1 -1 -1 -1 -1 -1 -1 -1 -1 -1 -1 63 63 63 64 64 64 64 64 65 65 66 67 67 68 68 69 69 69 69 69 69 69 69 69 69 69 70 70 70 70 70 70 70 70 70 70 70 70 70 70 70 70 70 70 70 70 71 71 71 71 71 71 71 71 72 72 72 72 72 72 72 72 73 73 74 74 75 75 76 76 77 77 77 78 78 78 78 78 79 79 79 79 80 80 80 80 80 80 81 81 81 81 81 82 82 82 82 82 83 83 83 84 84 85 85 86 86 86 87 87 87 88 88 89 89 89 89 89 89 89 89 89 89 89 89 90 90 90 90 90 91 91 91 91 88 86 85 84 84 83 82 82 81 69 69 68 69 69 69 70 69 69 69 68 68 67 66 66 66 66 66 65 65 65 65 65 65 65 65 65 65 65 65 65 65 66 66 66 66 66 67 67 67 68 68 68 68 68 68 113 113 113 113 114 114 114 114 114 114 114 114 113 113 113 112 111 67 67 67 67 67 67 67 67 67 67 67 67 66 65 64
64 64 64 64 64 64 64 64 64 64 64 64 64 63 63 63 -1 -1 -1 -1 -1 -1 -1 -1 -1 -1 -1 -1 -1 -1 -1 -1 -1 -1 63 63 64 64 64 64 64 64 64 65 65 66 67 67 68 69 69 69 70 69 69 69 69 69 69 69 69 69 70 70 70 70 70 70 70 69 69 69 69 69 70 70 70 70 70 70 70 70 70 70 70 71 71 71 71 71 71 72 72 72 72 72 72 72 73 73 74 74 75 75 76 77 77 77 78 78 78 78 78 79 79 79 79 80 80 80 80 80 80 80 81 81 81 81 82 82 82 82 82 83 83 84 84 84 85 85 85 86 86 87 87 87 88 88 89 89 89 89 89 89 89 89 89 90 90 90 90 90 90 91 91 91 91 91 91 87 85 84 84 83 82 81 81 67 67 67 67 67 67 66 66 66 66 66 66 66 66 66 66 66 66 66 66 66 66 66 65 65 65 65 65 65 65 65 65 66 66 66 66 66 67 67 68 68 68 69 69 69 69 68 113 113 113 113 114 114 114 114 114 114 114 114 113 113 113 112 111 67 67 67 67 67 67 67 67 67 67 66 66 65 64 64
64 64 64 64 64 64 64 64 64 64 64 64 63 63 63 -1 -1 -1 -1 -1 -1 -1 -1 -1 -1 -1 -1 -1 -1 -1 -1 -1 -1 -1 63 63 64 64 64 64 64 64 64 65 65 66 66 67 68 68 69 69 70 69 69 69 68 69 69 69 69 69 69 70 70 70 70 70 69 69 69 69 69 69 69 69 69 69 69 69 69 70 70 70 70 70 70 71 71 71 71 71 71 71 72 72 72 72 72 72 73 74 74 75 76 76 77 77 78 78 78 78 78 79 79 79 80 80 80 80 81 81 81 81 81 81 81 81 81 82 82 82 83 83 83 84 84 85 85 85 86 86 87 87 87 88 88 88 89 89 89 89 89 89 90 90 90 90 90 90 90 90 91 91 91 90 89 88 87 85 84 83 82 81 69 68 67 67 67 67 67 67 66 66 66 66 66 66 66 66 66 66 66 65 65 65 65 65 65 65 65 65 65 65 65 65 65 66 66 66 66 66 66 67 67 67 67 68 68 68 68 69 69 70 81 82 82 83 113 113 113 113 114 113 113 113 113 113 113 102 102 69 68 68 67 67 67 67 67 67 66 66 66 65 64 64
64 64 64 64 64 64 64 64 64 64 63 63 63 63 -1 -1 -1 -1 -1 -1 -1 -1 -1 -1 -1 -1 -1 -1 -1 -1 -1 -1 -1 63 63 63 64 64 64 64 64 64 64 65 65 66 66 67 67 68 69 69 69 69 69 69 68 68 69 69 69 69 69 69 69 69 69 69 69 69 69 69 69 69 69 69 68 68 68 69 69 69 69 69 69 69 70 70 70 70 70 71 71 71 71 71 72 72 72 72 72 73 74 75 76 76 77 77 77 78 78 78 78 79 79 79 80 80 80 81 81 81 81 81 81 81 81 81 81 82 82 82 83 83 84 84 85 85 85 86 86 86 87 87 87 88 88 88 89 89 89 89 90 90 90 90 90 90 90 90 90 91 91 91 91 89 87 86 86 84 82 72 70 69 68 68 67 67 67 67 67 66 66 66 66 66 66 65 65 65 65 65 65 65 65 65 65 65 65 65 65 65 65 65 65 65 66 66 66 66 66 66 66 67 67 67 67 67 67 67 67 69 70 71 81 81 82 83 113 113 113 113 113 113 113 113 113 113 113 99 100 72 70 68 67 67 67 67 67 66 66 65 65 64 64 63
64 64 64 64 64 64 64 64 64 63 63 63 63 -1 -1 -1 -1 -1 -1 -1 -1 -1 -1 -1 -1 -1 -1 -1 -1 -1 -1 -1 63 63 63 64 64 64 64 64 64 64 64 65 65 65 66 67 67 68 68 69 69 69 69 68 68 68 68 69 69 69 69 69 69 69 69 69 69 69 69 69 69 69 68 68 67 67 67 67 67 68 68 68 68 68 69 69 69 70 70 70 70 70 71 71 71 71 72 72 72 72 73 74 75 76 76 77 77 78 78 78 78 79 79 80 80 80 81 81 81 81 81 81 81 81 81 81 81 82 82 82 83 83 84 85 85 85 86 86 86 87 87 87 88 88 88 89 89 89 89 90 90 90 90 91 91 91 91 91 91 91 91 91 91 88 86 85 85 83 80 71 69 68 68 68 67 67 67 67 66 66 66 66 65 65 65 65 65 65 65 64 64 64 64 64 64 64 64 64 65 65 65 65 65 66 66 66 66 66 66 67 67 67 67 67 67 67 67 67 67 69 70 71 72 81 82 82 113 113 113 113 113 113 113 113 113 113 84 98 99 97 72 69 67 67 67 67 66 66 65 64 64 64 63 63
64 64 64 64 64 64 64 64 63 63 63 63 -1 -1 -1 -1 -1 -1 -1 -1 -1 -1 -1 -1 -1 -1 -1 -1 -1 -1 -1 63 63 63 64 64 64 64 64 64 64 64 64 65 65 65 66 66 67 67 68 68 69 69 68 68 68 68 68 68 69 69 69 69 69 69 69 69 69 69 69 69 69 68 68 67 66 66 66 66 66 66 66 66 67 67 67 68 68 68 69 69 69 70 70 70 70 71 71 71 72 72 73 74 75 76 76 77 77 77 78 78 78 79 79 80 80 81 81 81 82 81 81 81 81 81 81 81 81 82 82 82 83 84 84 85 85 86 86 86 87 87 87 88 88 88 89 89 89 89 90 90 90 90 91 91 91 91 91 91 91 91 91 91 91 87 86 85 84 82 73 70 68 68 68 67 67 67 67 66 66 66 66 65 65 65 65 64 64 64 64 64 64 64 64 64 64 64 64 64 64 65 65 65 65 66 66 66 66 66 67 67 67 67 67 67 67 67 67 67 67 69 70 72 76 81 81 82 82 113 113 113 113 113 113 113 113 84 87 97 99 97 80 70 67 67 67 66 66 65 64 64 64 63 63 -1
63 63 63 63 63 63 63 63 63 -1 -1 -1 -1 -1 -1 -1 -1 -1 -1 -1 -1 -1 -1 -1 -1 -1 -1 -1 -1 -1 -1 63 63 63 64 64 64 64 64 64 64 64 64 64 64 65 66 66 67 67 68 68 69 69 69 68 68 68 68 68 68 69 69 69 69 69 69 69 69 69 69 69 69 68 68 67 66 66 66 66 65 66 66 66 66 67 67 68 68 68 69 69 69 69 70 70 70 71 71 71 71 72 72 73 74 75 76 76 77 77 78 78 78 79 79 80 80 81 81 81 82 81 81 81 81 81 81 81 81 82 82 83 83 84 85 85 86 86 86 87 87 87 88 88 88 89 89 89 90 90 90 90 90 91 91 91 92 91 91 91 91 91 90 89 89 86 85 84 84 82 74 70 68 68 68 67 67 67 67 66 66 66 65 65 64 64 64 64 63 63 63 63 63 63 63 63 63 63 64 64 64 64 64 65 65 65 66 66 66 66 67 67 67 67 67 67 67 67 67 67 67 68 70 71 72 71 71 81 81 81 81 82 113 113 113 82 83 85 87 97 98 97 82 73 69 68 67 66 65 65 64 64 63 63 -1 -1
63 63 63 63 63 -1 -1 -1 -1 -1 -1 -1 -1 -1 -1 -1 -1 -1 -1 -1 -1 -1 -1 -1 -1 -1 -1 -1 -1 -1 63 63 63 63 64 64 64 64 64 64 64 64 64 64 64 65 65 66 66 67 67 68 68 69 69 69 69 69 69 69 68 68 69 69 69 69 69 69 69 69 69 69 69 68 67 66 65 65 65 65 65 65 66 66 66 67 67 68 68 68 69 69 69 69 70 70 70 70 71 71 71 72 72 72 73 74 75 76 77 77 78 78 78 79 79 80 80 81 81 81 82 81 81 81 81 81 81 81 81 82 82 83 83 84 85 86 86 87 87 87 87 88 88 88 89 89 89 89 90 90 90 90 91 91 91 91 92 92 92 92 92 90 89 88 87 86 85 84 84 82 74 71 68 68 68 67 67 67 66 66 66 65 65 64 64 64 63 63 63 63 63 63 63 63 -1 -1 -1 63 63 63 63 64 64 64 65 65 65 66 66 66 67 67 67 67 67 67 67 67 67 67 67 68 69 70 71 70 70 70 70 70 81 81 113 82 83 83 84 85 87 97 98 97 83 78 73 71 68 66 65 64 64 63 63 -1 -1 -1
63 -1 -1 -1 -1 -1 -1 -1 -1 -1 -1 -1 -1 -1 -1 -1 -1 -1 -1 -1 -1 -1 -1 -1 -1 -1 -1 -1 -1 -1 63 63 63 64 64 64 64 64 64 64 64 64 64 64 64 65 65 65 66 66 67 68 68 69 69 69 69 69 69 69 68 68 68 68 68 69 69 69 69 69 69 68 68 68 67 66 65 65 65 65 64 65 65 66 66 66 67 67 68 68 68 69 69 69 70 70 70 70 70 71 71 71 72 72 73 74 75 76 77 77 77 78 78 79 79 80 81 81 81 81 82 81 81 81 81 81 81 81 82 82 83 83 84 84 85 86 87 87 87 88 88 88 88 89 89 89 89 90 90 90 90 91 91 91 91 92 92 92 92 92 92 90 88 87 86 85 85 84 84 82 75 71 68 68 68 67 67 67 66 66 65 65 64 64 63 63 63 -1 -1 -1 -1 -1 -1 -1 -1 -1 -1 -1 -1 63 63 63 64 64 64 65 65 66 66 66 67 67 67 67 67 67 67 67 67 67 67 68 68 69 69 69 69 69 69 69 69 81 113 82 83 84 84 86 97 97 98 96 84 80 78 74 70 67 64 64 63 63 63 -1 -1 -1
-1 -1 -1 -1 -1 -1 -1 -1 -1 -1 -1 -1 -1 -1 -1 -1 -1 -1 -1 -1 -1 -1 -1 -1 -1 -1 -1 -1 -1 63 63 63 63 64 64 64 64 64 64 64 64 64 64 64 64 64 65 65 65 66 67 68 68 69 69 70 70 69 69 69 68 68 68 68 68 68 68 69 69 69 68 68 68 68 67 66 64 64 64 64 64 64 65 65 66 66 67 67 68 68 68 69 69 69 69 70 70 70 70 70 71 71 71 72 72 73 74 76 77 77 77 78 78 79 79 80 81 81 81 81 82 81 81 81 81 81 81 82 82 82 83 83 84 85 85 86 87 87 88 88 88 88 89 89 89 89 90 90 90 90 91 91 91 91 92 92 92 92 92 92 92 89 87 86 85 85 84 84 84 81 75 71 68 68 68 67 67 67 66 66 65 64 64 63 63 63 -1 -1 -1 -1 -1 -1 -1 -1 -1 -1 -1 -1 -1 -1 63 63 63 64 64 64 65 66 66 66 67 67 67 67 67 67 68 68 68 68 68 68 68 68 68 68 68 68 68 68 69 81 113 83 83 84 97 97 97 97 97 94 85 82 80 77 72 67 64 63 63 63 -1 -1 -1 -1
-1 -1 -1 -1 -1 -1 -1 -1 -1 -1 -1 -1 -1 -1 -1 -1 -1 -1 -1 -1 -1 -1 -1 -1 -1 -1 -1 -1 63 63 63 63 63 64 64 64 64 64 64 64 64 64 64 64 64 64 65 65 65 66 67 67 68 69 69 69 70 69 69 69 69 69 69 69 69 69 69 69 69 69 68 68 68 67 67 65 64 64 64 64 64 64 65 65 66 66 67 67 68 68 68 69 69 69 69 69 70 70 70 70 70 71 71 72 72 73 74 75 76 76 77 77 78 78 79 80 80 81 81 81 82 81 81 81 81 82 82 82 82 82 83 84 84 85 86 86 87 87 88 88 88 88 89 89 89 89 90 90 90 91 91 91 91 92 92 92 92 92 92 92 92 90 88 87 86 85 85 84 84 82 75 71 68 68 67 67 67 66 66 65 64 64 63 63 63 -1 -1 -1 -1 -1 -1 -1 -1 -1 -1 -1 -1 -1 -1 -1 -1 -1 63 63 64 64 65 65 66 66 67 67 67 67 67 68 68 68 68 68 68 68 68 68 68 68 68 68 68 68 69 81 82 82 83 84 97 97 97 97 97 90 85 82 80 77 74 68 64 63 63 -1 -1 -1 -1 -1
-1 -1 -1 -1 -1 -1 -1 -1 -1 -1 -1 -1 -1 -1 -1 -1 -1 -1 -1 -1 -1 -1 -1 -1 -1 -1 -1 -1 63 63 63 63 64 64 64 64 64 64 64 64 64 64 64 64 64 64 65 65 65 66 66 67 68 68 69 69 70 70 70 70 70 70 70 69 69 69 69 69 69 69 68 68 68 67 66 65 64 64 64 64 64 64 65 65 66 67 67 68 68 68 68 69 69 69 69 69 69 70 70 70 70 71 71 72 72 72 73 74 75 75 76 77 78 78 78 79 80 81 81 81 81 81 81 81 82 82 82 82 82 83 83 84 84 85 86 86 87 87 88 88 88 89 89 89 89 90 90 90 90 91 91 91 92 92 92 92 92 92 92 92 92 90 89 88 87 86 86 85 85 82 76 71 68 68 67 67 67 66 66 65 64 64 63 63 -1 -1 -1 -1 -1 -1 -1 -1 -1 -1 -1 -1 -1 -1 -1 -1 -1 -1 -1 63 63 64 64 65 66 66 67 67 67 67 67 68 68 68 68 68 68 68 68 68 68 68 68 68 68 69 69 69 82 82 83 83 97 97 97 97 95 88 85 83 81 78 75 71 65 64 -1 -1 -1 -1 -1 -1
-1 -1 -1 -1 -1 -1 -1 -1 -1 -1 -1 -1 -1 -1 -1 -1 -1 -1 -1 -1 -1 -1 -1 -1 -1 -1 -1 63 63 63 63 64 64 64 64 64 64 64 64 64 64 64 64 64 64 64 65 65 65 66 66 67 67 68 69 69 69 70 70 71 71 71 70 70 70 69 69 69 69 68 68 68 68 67 66 65 64 64 64 64 64 64 65 66 66 67 67 68 68 68 68 69 69 69 69 69 69 69 70 70 70 71 71 71 72 72 72 73 73 74 75 76 77 77 78 79 79 80 81 81 81 81 82 82 82 82 82 82 83 83 84 84 85 85 86 86 87 87 88 88 88 89 89 89 90 90 90 90 91 91 91 92 92 92 92 92 92 92 92 92 92 91 90 89 88 88 87 87 86 83 76 71 68 68 67 67 67 66 65 64 64 63 63 -1 -1 -1 -1 -1 -1 -1 -1 -1 -1 -1 -1 -1 -1 -1 -1 -1 -1 -1 -1 63 63 64 64 65 66 66 67 67 67 67 68 68 68 68 68 68 68 68 68 68 68 68 68 68 68 69 69 69 81 82 82 83 97 97 85 86 91 87 85 83 82 78 75 74 71 64 -1 -1 -1 -1 -1 -1
-1 -1 -1 -1 -1 -1 -1 -1 -1 -1 -1 -1 -1 -1 -1 -1 -1 -1 -1 -1 -1 -1 -1 -1 63 63 63 63 63 63 63 64 64 64 64 64 64 64 64 64 64 64 64 64 64 64 65 65 65 66 66 67 67 68 68 69 69 70 71 71 72 71 71 71 70 70 69 69 69 68 68 68 68 67 66 64 64 64 64 64 64 64 65 66 66 67 67 68 68 68 69 69 69 69 69 69 69 69 70 70 70 71 71 71 72 72 72 72 72 73 74 75 77 77 78 78 79 80 81 81 81 81 82 82 82 82 82 83 83 83 84 84 85 85 86 87 87 88 88 88 88 89 89 89 90 90 90 90 91 91 91 92 92 92 92 92 93 92 92 92 92 91 91 91 90 90 90 90 90 84 76 71 68 68 67 67 66 66 65 64 64 63 -1 -1 -1 -1 -1 -1 -1 -1 -1 -1 -1 -1 -1 -1 -1 -1 -1 -1 -1 -1 -1 -1 63 63 64 64 66 66 66 67 67 67 68 68 68 68 68 68 68 68 68 68 68 69 69 69 69 69 69 70 81 81 82 83 97 97 85 86 87 86 85 84 83 79 76 75 74 64 -1 -1 -1 -1 -1 -1
-1 -1 -1 -1 -1 -1 -1 -1 -1 -1 -1 -1 -1 -1 -1 -1 -1 -1 -1 -1 -1 -1 -1 -1 63 63 63 63 63 63 64 64 64 64 64 64 64 64 64 64 64 64 64 64 64 64 65 65 65 66 66 66 66 67 68 68 69 70 71 71 72 71 71 71 71 70 70 70 69 69 69 69 68 67 66 65 64 64 64 64 64 64 65 66 67 67 68 68 69 69 69 69 69 69 69 69 69 69 69 70 70 70 71 71 71 71 72 72 72 72 73 74 75 76 76 77 77 79 80 81 81 82 82 82 82 82 83 -1 -1 84 84 85 85 85 86 86 87 87 88 88 88 89 89 89 90 90 90 91 91 91 91 92 92 92 92 92 92 92 92 92 92 91 91 91 90 90 89 88 88 83 76 71 68 67 67 67 66 65 64 64 63 63 -1 -1 -1 -1 -1 -1 -1 -1 -1 -1 -1 -1 -1 -1 -1 -1 -1 -1 -1 -1 -1 -1 -1 63 63 64 64 65 66 66 67 67 67 67 67 67 67 68 68 68 68 68 68 69 69 69 69 69 69 69 69 70 81 82 83 83 83 83 84 82 81 77 72 71 69 68 65 -1 -1 -1 -1 -1 -1 -1
-1 -1 -1 -1 -1 -1 -1 -1 -1 -1 -1 -1 -1 -1 -1 -1 -1 -1 -1 -1 -1 -1 -1 63 63 63 63 63 63 64 64 64 64 64 64 64 64 64 64 64 64 64 64 64 64 64 65 65 65 65 66 66 66 67 68 68 69 70 70 71 71 71 71 71 71 71 71 70 70 70 70 69 69 68 67 65 64 64 64 64 64 64 65 66 67 67 68 68 69 69 69 69 69 69 69 69 69 69 69 69 70 70 70 70 71 71 71 71 72 72 72 73 74 74 75 76 76 77 79 81 81 82 82 82 82 83 83 -1 84 84 84 85 85 85 86 86 87 87 87 88 88 89 89 90 90 90 91 91 91 91 91 92 92 92 92 92 92 92 91 91 91 91 91 91 90 89 88 87 86 82 75 71 68 67 67 66 66 65 64 63 63 -1 -1 -1 -1 -1 -1 -1 -1 -1 -1 -1 -1 -1 -1 -1 -1 -1 -1 -1 -1 -1 -1 -1 -1 -1 63 63 64 64 64 65 66 66 66 66 66 67 67 67 67 68 68 68 68 68 69 69 69 69 69 69 69 69 69 81 82 82 82 82 82 66 65 64 64 64 63 63 63 -1 -1 -1 -1 -1 -1 -1
-1 -1 -1 -1 -1 -1 -1 -1 -1 -1 -1 -1 -1 -1 -1 -1 -1 -1 -1 -1 -1 -1 63 63 63 63 63 63 64 64 64 64 64 64 64 64 64 64 64 64 64 64 64 64 64 64 64 65 65 65 66 66 66 67 67 68 68 69 70 71 71 71 71 72 72 72 71 71 71 71 70 70 69 68 67 65 64 64 64 64 64 65 65 66 67 68 68 68 69 69 69 69 69 69 69 69 69 69 69 69 69 70 70 70 70 70 71 71 71 72 72 72 73 73 74 75 75 77 78 80 81 82 -1 -1 83 83 83 84 84 84 85 85 85 86 86 86 86 87 87 88 88 89 89 90 90 91 91 91 91 91 91 92 92 92 91 91 91 91 91 91 91 91 91 91 90 88 87 86 85 81 75 71 68 67 67 66 66 65 64 63 63 -1 -1 -1 -1 -1 -1 -1 -1 -1 -1 -1 -1 -1 -1 -1 -1 -1 -1 -1 -1 -1 -1 -1 -1 -1 -1 63 63 63 64 64 65 65 65 65 65 66 66 66 67 67 67 68 68 68 69 69 69 69 69 69 69 68 68 68 81 81 81 81 81 64 63 -1 -1 -1 -1 -1 -1 -1 -1 -1 -1 -1 -1 -1
-1 -1 -1 -1 -1 -1 -1 -1 -1 -1 -1 -1 -1 -1 -1 -1 -1 -1 -1 -1 -1 63 63 63 63 63 64 64 64 64 64 64 64 64 64 64 64 64 64 64 64 64 64 64 64 64 64 65 65 65 65 66 66 67 67 67 68 69 70 70 71 71 72 72 72 72 72 72 72 71 71 70 70 69 67 65 64 64 64 64 64 65 66 67 67 68 68 69 69 69 69 69 69 69 69 69 69 69 69 69 69 69 69 70 70 70 70 71 71 71 72 72 72 72 73 74 74 76 78 80 81 -1 -1 -1 83 83 84 84 85 85 85 85 85 86 86 86 86 87 87 88 88 89 89 90 90 91 91 91 91 91 91 92 92 91 91 91 91 91 91 91 91 91 91 91 91 88 86 85 85 81 75 70 68 67 67 66 65 64 64 63 -1 -1 -1 -1 -1 -1 -1 -1 -1 -1 -1 -1 -1 -1 -1 -1 -1 -1 -1 -1 -1 -1 -1 -1 -1 -1 -1 -1 63 63 63 64 64 64 64 64 64 65 65 66 66 67 67 67 68 68 69 69 70 69 69 69 68 68 67 67 66 65 64 63 63 -1 -1 -1 -1 -1 -1 -1 -1 -1 -1 -1 -1 -1 -1 -1
-1 -1 -1 -1 -1 -1 -1 -1 -1 -1 -1 -1 -1 -1 -1 -1 -1 -1 -1 -1 63 63 63 63 63 64 64 64 64 64 64 64 64 64 64 64 64 64 64 64 64 64 64 64 64 64 64 65 65 65 65 66 66 66 67 67 68 69 70 70 71 71 71 72 72 72 72 72 72 71 70 70 69 68 67 65 64 64 64 64 64 65 66 67 68 68 68 69 69 69 69 69 69 69 69 69 69 69 69 69 69 69 69 69 69 70 70 70 71 71 71 72 72 72 72 73 74 76 78 80 81 -1 -1 -1 83 84 84 85 85 85 85 85 86 86 86 86 86 87 87 88 88 89 89 90 91 91 91 91 91 91 91 91 91 91 91 91 90 90 90 90 90 90 90 90 90 87 86 85 84 81 75 70 68 67 66 66 65 64 63 63 -1 -1 -1 -1 -1 -1 -1 -1 -1 -1 -1 -1 -1 -1 -1 -1 -1 -1 -1 -1 -1 -1 -1 -1 -1 -1 -1 -1 -1 -1 63 63 63 63 64 64 64 64 64 64 65 65 66 66 66 67 68 68 69 68 68 68 67 67 66 65 65 64 63 63 -1 -1 -1 -1 -1 -1 -1 -1 -1 -1 -1 -1 -1 -1 -1 -1
63 63 -1 -1 -1 -1 -1 -1 -1 -1 -1 -1 -1 -1 -1 -1 -1 -1 -1 -1 63 63 63 63 64 64 64 64 64 64 64 64 64 64 64 64 64 64 64 64 64 64 64 64 64 64 64 65 65 65 65 66 66 66 67 67 67 69 69 70 71 71 71 71 72 72 72 72 71 71 70 69 68 67 66 65 64 64 64 65 65 66 67 67 68 68 69 69 69 69 69 69 69 69 69 69 69 69 69 69 69 69 69 69 69 70 70 70 70 71 71 71 72 72 72 73 74 75 77 80 81 82 -1 83 84 84 84 85 85 85 86 86 86 86 86 86 87 87 87 88 88 89 89 90 91 91 91 91 91 91 91 91 91 91 91 90 90 90 90 90 90 90 90 90 90 87 85 84 84 81 75 70 68 67 66 65 64 64 63 -1 -1 -1 -1 -1 -1 -1 -1 -1 -1 -1 -1 -1 -1 -1 -1 -1 -1 -1 -1 -1 -1 -1 -1 -1 -1 -1 -1 -1 -1 -1 -1 -1 63 63 63 63 63 63 63 64 64 64 64 64 65 66 66 67 68 67 67 66 66 65 65 64 64 63 63 -1 -1 -1 -1 -1 -1 -1 -1 -1 -1 -1 -1 -1 -1 -1 -1 -1
63 63 63 -1 -1 -1 -1 -1 -1 -1 -1 -1 -1 -1 -1 -1 -1 -1 -1 63 63 63 63 64 64 64 64 64 64 64 64 64 64 64 64 64 64 64 64 64 64 64 64 64 64 64 64 65 65 65 65 66 66 66 66 67 67 68 69 70 70 71 71 71 71 71 71 71 71 71 69 68 67 66 65 65 64 64 65 65 66 66 67 68 68 69 69 69 69 69 69 69 69 69 69 69 69 69 69 69 69 69 69 69 69 69 70 70 70 70 71 71 71 72 72 72 73 75 77 80 81 82 83 83 84 84 85 85 86 86 86 86 86 86 87 87 87 87 88 88 89 89 90 90 91 91 91 91 91 91 91 91 91 90 90 90 90 90 90 90 90 90 90 90 90 86 85 84 83 81 75 70 68 67 66 65 64 64 63 -1 -1 -1 -1 -1 -1 -1 -1 -1 -1 -1 -1 -1 -1 -1 -1 -1 -1 -1 -1 -1 -1 -1 -1 -1 -1 -1 -1 -1 -1 -1 -1 -1 -1 -1 -1 -1 63 63 63 63 63 63 63 64 64 64 64 65 66 65 65 65 64 64 64 64 63 63 -1 -1 -1 -1 -1 -1 -1 -1 -1 -1 -1 -1 -1 -1 -1 -1 -1 64
63 63 63 -1 -1 -1 -1 -1 -1 -1 -1 -1 -1 -1 -1 -1 -1 -1 -1 63 63 63 63 64 64 64 64 64 64 64 64 64 64 64 64 64 64 64 64 64 64 64 64 64 64 64 64 65 65 65 65 66 66 66 66 67 67 68 69 70 70 70 71 71 71 71 71 71 71 70 69 67 65 65 65 65 64 65 65 66 66 67 67 68 69 69 69 69 70 70 69 69 69 69 69 69 69 69 69 69 69 69 69 69 69 69 69 70 70 70 71 71 71 71 72 72 73 75 77 79 81 82 83 83 84 85 85 86 86 86 86 86 86 87 87 87 87 87 88 88 89 89 90 90 91 91 91 91 91 91 91 91 90 90 90 90 90 90 90 90 89 89 89 89 89 86 84 84 83 81 75 70 68 67 66 65 64 63 63 -1 -1 -1 -1 -1 -1 -1 -1 -1 -1 -1 -1 -1 -1 -1 -1 -1 -1 -1 -1 -1 -1 -1 -1 -1 -1 -1 -1 -1 -1 -1 -1 -1 -1 -1 -1 -1 -1 -1 -1 -1 -1 63 63 63 63 63 63 64 64 64 64 64 64 64 63 63 63 -1 -1 -1 -1 -1 -1 -1 -1 -1 -1 -1 -1 -1 -1 -1 -1 -1 64 66
63 63 -1 -1 -1 -1 -1 -1 -1 -1 -1 -1 -1 -1 -1 -1 -1 -1 -1 63 63 63 63 63 64 64 64 64 64 64 64 64 64 64 64 64 64 64 64 64 64 64 64 64 64 64 64 65 65 65 65 65 65 66 66 66 67 68 68 69 70 70 70 70 70 70 70 71 71 70 69 67 66 66 65 65 65 66 66 67 67 67 68 68 69 69 69 70 70 70 70 70 70 70 70 70 69 69 69 69 69 69 69 69 69 69 70 70 70 70 71 71 71 72 72 72 73 75 77 79 81 82 83 83 84 85 85 86 86 86 86 87 87 87 87 87 87 88 88 89 89 89 90 90 91 91 91 91 91 91 91 90 90 90 90 90 90 89 89 89 89 89 89 89 89 86 84 84 83 81 75 70 67 66 65 64 64 63 -1 -1 -1 -1 -1 -1 -1 -1 -1 -1 -1 -1 -1 -1 -1 -1 -1 -1 -1 -1 -1 -1 -1 -1 -1 -1 -1 -1 -1 -1 -1 -1 -1 -1 -1 -1 -1 -1 -1 -1 -1 -1 -1 -1 -1 -1 -1 -1 63 63 63 63 63 63 63 63 63 -1 -1 -1 -1 -1 -1 -1 -1 -1 -1 -1 -1 -1 -1 -1 -1 -1 -1 -1 64 66
63 63 -1 -1 -1 -1 -1 -1 -1 -1 -1 -1 -1 -1 -1 -1 -1 -1 -1 63 63 63 63 63 63 64 64 64 64 64 64 64 64 64 64 64 64 64 64 64 64 64 64 64 64 64 64 65 65 65 65 65 65 66 66 66 67 67 68 68 69 69 69 69 70 70 70 70 70 69 68 67 67 66 66 66 66 66 67 67 68 68 68 69 69 69 70 70 70 70 70 70 70 70 70 70 70 70 70 70 70 70 70 70 70 70 70 70 70 71 71 71 71 72 72 72 73 75 77 79 81 82 83 83 84 85 85 86 86 87 87 87 87 87 87 87 88 88 88 89 89 90 90 91 91 91 91 91 91 91 91 90 90 90 90 90 89 89 89 89 89 89 89 89 89 86 85 84 83 81 74 70 67 66 65 64 63 -1 -1 -1 -1 -1 -1 -1 -1 -1 -1 -1 -1 -1 -1 -1 -1 -1 -1 -1 -1 -1 -1 -1 -1 -1 -1 -1 -1 -1 -1 -1 -1 -1 -1 -1 -1 -1 -1 -1 -1 -1 -1 -1 -1 -1 -1 -1 -1 -1 -1 -1 63 63 63 63 63 -1 -1 -1 -1 -1 -1 -1 -1 -1 -1 -1 -1 -1 -1 -1 -1 -1 -1 -1 -1 63 64 66
63 -1 -1 -1 -1 -1 -1 -1 -1 -1 -1 -1 -1 -1 -1 -1 -1 -1 -1 -1 63 63 63 63 63 63 63 63 63 64 64 64 64 64 64 64 64 64 64 64 64 64 64 64 64 64 64 64 65 65 65 65 66 66 66 66 66 67 67 68 68 68 68 69 69 69 69 69 69 69 68 68 67 67 67 67 67 67 68 68 68 69 69 69 69 70 70 70 70 70 70 70 71 70 70 70 70 70 70 70 70 70 70 70 70 70 70 71 71 71 71 71 72 72 72 72 72 75 77 79 81 82 83 83 84 85 85 86 87 87 87 87 87 87 88 88 88 88 89 89 89 90 90 91 91 91 91 91 91 91 91 90 90 90 90 89 89 89 89 89 89 89 89 89 89 86 85 84 83 81 74 70 67 66 64 64 63 -1 -1 -1 -1 -1 -1 -1 -1 -1 -1 -1 -1 -1 -1 -1 -1 -1 -1 -1 -1 -1 -1 -1 -1 -1 -1 -1 -1 -1 -1 -1 -1 -1 -1 -1 -1 -1 -1 -1 -1 -1 -1 -1 -1 -1 -1 -1 -1 -1 -1 -1 -1 -1 -1 -1 -1 -1 -1 -1 -1 -1 -1 -1 -1 -1 -1 -1 -1 -1 -1 -1 -1 -1 -1 -1 -1 63 64 66
63 -1 -1 -1 -1 -1 -1 -1 -1 -1 -1 -1 -1 -1 -1 -1 -1 -1 -1 -1 -1 63 63 63 63 63 63 63 63 63 64 64 64 64 64 64 64 64 64 64 64 64 64 64 64 64 64 64 65 65 65 65 66 66 66 66 66 66 67 67 67 67 67 68 68 68 68 68 68 68 68 68 68 68 68 68 68 68 68 69 69 69 69 69 70 70 70 70 71 71 71 71 71 71 71 71 71 71 71 71 71 71 71 71 71 71 71 71 71 71 71 72 72 72 72 72 72 75 77 79 81 82 83 83 84 85 86 86 87 87 87 87 88 88 88 88 88 89 89 89 90 90 91 91 91 91 91 91 91 91 91 90 90 90 89 89 89 89 89 89 88 88 89 89 89 86 85 84 83 81 73 70 67 65 64 63 63 -1 -1 -1 -1 -1 -1 -1 -1 -1 -1 -1 -1 -1 -1 -1 -1 -1 -1 -1 -1 -1 -1 -1 -1 -1 -1 -1 -1 -1 -1 -1 -1 -1 -1 -1 -1 -1 -1 -1 -1 -1 -1 -1 -1 -1 -1 -1 -1 -1 -1 -1 -1 -1 -1 -1 -1 -1 -1 -1 -1 -1 -1 -1 -1 -1 -1 -1 -1 -1 -1 -1 -1 -1 -1 63 63 64 64 66
63 -1 -1 -1 -1 -1 -1 -1 -1 -1 -1 -1 -1 -1 -1 -1 -1 -1 -1 -1 -1 -1 -1 63 63 63 63 63 63 63 63 63 64 64 64 64 64 64 64 64 64 64 64 64 64 64 64 64 65 65 65 65 65 66 66 66 66 66 67 67 67 67 68 68 68 68 68 68 68 68 68 68 68 68 68 68 68 68 68 69 69 69 69 70 70 70 70 71 71 71 71 71 71 71 71 71 71 71 71 71 71 71 71 71 71 71 71 71 71 71 72 72 72 72 72 72 73 75 77 79 81 82 83 83 84 85 85 86 87 87 87 87 88 88 88 88 88 89 89 89 89 90 90 90 90 90 91 91 91 90 90 90 90 89 89 89 89 89 89 88 88 88 88 88 88 86 85 84 83 81 75 71 68 66 64 63 -1 -1 -1 -1 -1 -1 -1 -1 -1 -1 -1 -1 -1 -1 -1 -1 -1 -1 -1 -1 -1 -1 -1 -1 -1 -1 -1 -1 -1 -1 -1 -1 -1 -1 -1 -1 -1 -1 -1 -1 -1 -1 -1 -1 -1 -1 -1 -1 -1 -1 -1 -1 -1 -1 -1 -1 -1 -1 -1 -1 -1 -1 -1 -1 -1 -1 -1 -1 -1 -1 -1 -1 -1 -1 -1 63 63 63 64 65
63 -1 -1 -1 -1 -1 -1 -1 -1 -1 -1 -1 -1 -1 -1 -1 -1 -1 -1 -1 -1 -1 -1 -1 63 63 63 63 63 63 63 63 63 64 64 64 64 64 64 64 64 64 64 64 64 64 64 64 64 65 65 65 65 66 66 66 66 66 67 67 67 67 68 68 68 68 68 68 68 68 68 68 68 68 68 68 68 68 68 69 69 69 69 70 70 70 70 71 71 71 71 71 71 71 71 71 71 72 72 72 72 72 72 72 72 72 72 72 72 72 72 72 72 72 72 73 74 76 78 80 81 82 83 83 84 85 85 86 86 87 87 87 88 88 88 88 89 89 89 89 89 89 90 90 90 90 90 90 91 90 90 89 89 89 89 89 89 89 88 88 88 88 88 88 88 86 85 84 83 81 77 72 69 66 64 63 -1 -1 -1 -1 -1 -1 -1 -1 -1 -1 -1 -1 -1 -1 -1 -1 -1 -1 -1 -1 -1 -1 -1 -1 -1 -1 -1 -1 -1 -1 -1 -1 -1 -1 -1 -1 -1 -1 -1 -1 -1 -1 -1 -1 -1 -1 -1 -1 -1 -1 -1 -1 -1 -1 -1 -1 -1 -1 -1 -1 -1 -1 -1 -1 -1 -1 -1 -1 -1 -1 -1 -1 -1 -1 -1 63 63 63 64 64
63 -1 -1 -1 -1 -1 -1 -1 -1 -1 -1 -1 -1 -1 -1 -1 -1 -1 -1 -1 -1 -1 -1 -1 -1 -1 63 63 63 63 63 63 63 63 64 64 64 64 64 64 64 64 64 64 64 64 64 64 64 65 65 65 65 66 66 66 66 66 67 67 67 67 68 68 68 68 68 68 68 68 68 68 68 68 68 68 68 68 69 69 69 69 69 70 70 70 71 71 71 71 71 71 72 72 72 72 72 72 72 72 72 72 72 72 72 72 72 72 72 72 72 72 72 72 73 74 75 77 79 81 82 82 83 83 84 85 85 86 86 87 87 87 88 88 88 88 89 89 89 89 89 89 89 89 89 90 90 90 90 90 89 89 89 89 89 89 89 88 88 88 88 88 88 88 88 86 85 84 83 81 78 73 70 67 64 63 -1 -1 -1 -1 -1 -1 -1 -1 -1 -1 -1 -1 -1 -1 -1 -1 -1 -1 -1 -1 -1 -1 -1 -1 -1 -1 -1 -1 -1 -1 -1 -1 -1 -1 -1 -1 -1 -1 -1 -1 -1 -1 -1 -1 -1 -1 -1 -1 -1 -1 -1 -1 -1 -1 -1 -1 -1 -1 -1 -1 -1 -1 -1 -1 -1 -1 -1 -1 -1 -1 -1 -1 -1 -1 63 63 63 63 64 64
63 -1 -1 -1 -1 -1 -1 -1 -1 -1 -1 -1 -1 -1 -1 -1 -1 -1 -1 -1 -1 -1 -1 -1 -1 -1 -1 63 63 63 63 63 63 63 63 64 64 64 64 64 64 64 64 64 64 64 64 64 64 65 65 65 65 65 66 66 66 66 67 67 67 67 68 68 68 68 68 68 68 68 68 68 68 68 68 68 68 69 69 69 69 69 70 70 70 70 71 71 71 71 72 72 72 72 72 72 72 72 72 73 73 73 73 73 73 73 73 73 72 72 72 72 72 73 73 74 75 77 79 81 82 82 83 83 84 84 85 86 86 86 87 87 88 88 88 88 89 89 89 89 89 89 89 89 89 89 89 90 90 90 89 89 89 89 89 89 88 88 88 88 88 87 87 87 87 86 85 84 83 82 80 76 73 68 64 63 -1 -1 -1 -1 -1 -1 -1 -1 -1 -1 -1 -1 -1 -1 -1 -1 -1 -1 -1 -1 -1 -1 -1 -1 -1 -1 -1 -1 -1 -1 -1 -1 -1 -1 -1 -1 -1 -1 -1 -1 -1 -1 -1 -1 -1 -1 -1 -1 -1 -1 -1 -1 -1 -1 -1 -1 -1 -1 -1 -1 -1 -1 -1 -1 -1 -1 -1 -1 -1 -1 -1 -1 -1 63 63 63 -1 63 64 64
63 -1 -1 -1 -1 -1 -1 -1 -1 -1 -1 -1 -1 -1 -1 -1 -1 -1 -1 -1 -1 -1 -1 -1 -1 -1 -1 -1 63 63 63 63 63 63 63 64 64 64 64 64 64 64 64 64 64 64 64 64 64 65 65 65 65 65 66 66 66 66 66 67 67 67 68 68 68 68 68 68 68 68 68 68 68 68 68 68 69 69 69 69 69 69 70 70 70 71 71 71 72 72 72 72 72 72 72 72 72 72 73 73 73 73 73 73 73 73 73 73 73 73 73 73 73 73 74 74 75 77 79 81 81 82 82 83 83 84 84 85 85 86 86 87 87 87 87 87 87 87 87 87 87 87 88 89 89 89 90 90 90 90 89 89 89 89 89 89 88 88 88 87 87 86 86 85 85 84 83 83 83 81 80 77 74 69 66 64 63 -1 -1 -1 -1 -1 -1 -1 -1 -1 -1 -1 -1 -1 -1 -1 -1 -1 -1 -1 -1 -1 -1 -1 -1 -1 -1 -1 -1 -1 -1 -1 -1 -1 -1 -1 -1 -1 -1 -1 -1 -1 -1 -1 -1 -1 -1 -1 -1 -1 -1 -1 -1 -1 -1 -1 -1 -1 -1 -1 -1 -1 -1 -1 -1 -1 -1 -1 -1 -1 -1 -1 63 63 63 -1 -1 64 64 66
63 -1 -1 -1 -1 -1 -1 -1 -1 -1 -1 -1 -1 -1 -1 -1 -1 -1 -1 -1 -1 -1 -1 -1 -1 -1 -1 -1 -1 63 63 63 63 63 63 63 64 64 64 64 64 64 64 64 64 64 64 64 64 64 65 65 65 65 65 66 66 66 66 67 67 67 67 68 68 68 68 68 68 68 68 68 68 68 69 69 69 69 69 69 69 70 70 70 71 71 71 72 72 72 72 72 72 72 72 72 72 73 73 73 73 73 73 73 73 73 73 73 73 73 73 73 73 73 74 74 75 77 78 80 81 81 82 82 82 83 83 84 84 85 86 87 87 87 86 86 85 85 85 85 85 86 87 88 89 89 90 90 90 90 90 89 89 89 89 89 88 88 87 87 86 85 85 84 84 83 83 82 82 81 80 77 75 70 67 64 63 -1 -1 -1 -1 -1 -1 -1 -1 -1 -1 -1 -1 -1 -1 -1 -1 -1 -1 -1 -1 -1 -1 -1 -1 -1 -1 -1 -1 -1 -1 -1 -1 -1 -1 -1 -1 -1 -1 -1 -1 -1 -1 -1 -1 -1 -1 -1 -1 -1 -1 -1 -1 -1 -1 -1 -1 -1 -1 -1 -1 -1 -1 -1 -1 -1 -1 -1 -1 -1 -1 63 63 63 -1 -1 -1 64 65 68
63 -1 -1 -1 -1 -1 -1 -1 -1 -1 -1 -1 -1 -1 -1 -1 -1 -1 -1 -1 -1 -1 -1 -1 -1 -1 -1 -1 -1 -1 63 63 63 63 63 63 64 64 64 64 64 64 64 64 64 64 64 64 64 64 65 65 65 65 65 65 66 66 66 66 67 67 67 67 68 68 68 68 68 68 68 68 69 69 69 69 69 69 69 69 69 70 70 70 71 71 72 72 72 72 72 72 72 72 72 72 73 73 73 73 73 73 73 73 73 73 73 73 73 73 73 73 73 74 74 75 75 77 78 79 80 81 81 82 82 82 83 83 84 85 85 86 87 86 86 85 85 85 85 85 85 85 86 87 89 90 90 90 90 90 90 90 89 89 89 89 88 88 87 86 86 85 84 83 83 83 82 82 82 81 80 78 76 71 68 66 64 63 -1 -1 -1 -1 -1 -1 -1 -1 -1 -1 -1 -1 -1 -1 -1 -1 -1 -1 -1 -1 -1 -1 -1 -1 -1 -1 -1 -1 -1 -1 -1 -1 -1 -1 -1 -1 -1 -1 -1 -1 -1 -1 -1 -1 -1 -1 -1 -1 -1 -1 -1 -1 -1 -1 -1 -1 -1 -1 -1 -1 -1 -1 -1 -1 -1 -1 -1 -1 -1 63 63 -1 -1 -1 -1 64 67 70
63 -1 -1 -1 -1 -1 -1 -1 -1 -1 -1 -1 -1 -1 -1 -1 -1 -1 -1 -1 -1 -1 -1 -1 -1 -1 -1 -1 -1 -1 -1 63 63 63 63 63 63 64 64 64 64 64 64 64 64 64 64 64 64 64 65 65 65 65 65 65 66 66 66 66 67 67 67 67 67 68 68 68 68 68 68 69 69 69 69 69 69 69 69 69 70 70 70 71 71 71 72 72 73 73 72 72 72 72 72 73 73 73 73 73 73 73 73 73 73 73 73 73 73 73 73 73 74 74 74 75 75 76 77 78 79 80 81 81 81 82 82 83 83 84 85 86 87 86 85 85 84 84 84 84 84 85 85 87 89 90 90 90 90 90 90 90 90 89 89 89 88 87 87 86 85 84 83 83 83 82 82 82 81 81 80 78 77 71 68 66 65 63 -1 -1 -1 -1 -1 -1 -1 -1 -1 -1 -1 -1 -1 -1 -1 -1 -1 -1 -1 -1 -1 -1 -1 -1 -1 -1 -1 -1 -1 -1 -1 -1 -1 -1 -1 -1 -1 -1 -1 -1 -1 -1 -1 -1 -1 -1 -1 -1 -1 -1 -1 -1 -1 -1 -1 -1 -1 -1 -1 -1 -1 -1 63 63 -1 -1 -1 -1 63 63 63 -1 -1 -1 -1 65 68 71
63 63 -1 -1 -1 -1 -1 -1 -1 -1 -1 -1 -1 -1 -1 -1 -1 -1 -1 -1 -1 -1 -1 -1 -1 -1 -1 -1 -1 -1 -1 63 63 63 63 63 64 64 64 64 64 64 64 64 64 64 64 64 64 64 65 65 65 65 65 66 66 66 66 66 67 67 67 67 68 68 68 68 68 69 69 69 69 69 69 69 69 69 70 70 70 70 71 71 71 72 72 72 73 72 72 72 72 72 72 73 73 73 73 73 73 73 73 73 73 73 73 73 73 73 73 73 73 74 74 75 76 76 77 78 80 80 81 81 81 82 82 82 83 83 83 83 82 82 82 82 82 82 82 82 83 83 85 87 89 89 89 90 90 89 89 89 88 87 87 86 85 85 85 84 84 84 83 83 83 82 82 82 81 81 80 78 77 71 68 66 65 63 -1 -1 -1 -1 -1 -1 -1 -1 -1 -1 -1 -1 -1 -1 -1 -1 -1 -1 -1 -1 -1 -1 -1 -1 -1 -1 -1 -1 -1 -1 -1 -1 -1 -1 -1 -1 -1 -1 -1 -1 -1 -1 -1 -1 -1 -1 -1 -1 -1 -1 -1 -1 -1 -1 -1 -1 -1 -1 -1 63 63 64 64 64 63 63 63 63 63 63 64 64 64 -1 -1 65 69 72
63 63 -1 -1 -1 -1 -1 -1 -1 -1 -1 -1 -1 -1 -1 -1 -1 -1 -1 -1 -1 -1 -1 -1 -1 -1 -1 -1 -1 -1 -1 63 63 63 63 63 64 64 64 64 64 64 64 64 64 64 64 64 64 64 65 65 65 65 65 66 66 66 66 67 67 67 67 68 68 68 68 68 69 69 69 69 69 69 69 69 69 70 70 70 70 70 71 71 71 72 72 72 73 72 72 72 72 72 72 72 73 73 73 73 72 73 73 73 73 73 73 72 72 73 73 73 73 74 74 75 76 77 77 79 80 80 81 81 81 82 82 82 82 82 81 79 78 78 77 77 76 78 79 80 80 82 84 86 89 89 89 89 89 89 88 87 87 86 85 85 84 84 84 84 83 83 83 83 83 82 82 82 81 81 80 78 76 71 68 66 65 63 -1 -1 -1 -1 -1 -1 -1 -1 -1 -1 -1 -1 -1 -1 -1 -1 -1 -1 -1 -1 -1 -1 -1 -1 -1 -1 -1 -1 -1 -1 -1 -1 -1 -1 -1 -1 -1 -1 -1 -1 -1 -1 -1 -1 -1 -1 -1 -1 -1 -1 -1 -1 -1 -1 -1 -1 -1 63 64 64 67 69 71 70 64 64 63 63 73 73 73 64 64 64 -1 65 70 83
63 63 -1 -1 -1 -1 -1 -1 -1 -1 -1 -1 -1 -1 -1 -1 -1 -1 -1 -1 -1 -1 -1 -1 -1 -1 -1 -1 -1 -1 -1 63 63 63 63 63 64 64 64 64 64 64 64 64 64 64 64 64 64 64 65 65 65 65 66 66 66 66 66 67 67 67 67 68 68 68 68 69 69 69 69 69 70 70 70 70 70 70 70 70 70 71 71 71 72 72 72 72 72 72 72 72 72 72 72 72 73 72 72 72 72 72 72 72 72 72 72 72 72 72 73 73 73 74 74 75 76 77 78 79 80 80 81 81 81 81 82 82 82 81 78 76 75 74 73 72 72 73 75 77 78 79 82 86 89 89 89 89 89 89 87 87 86 85 84 84 83 83 83 83 83 83 83 83 83 82 82 82 81 81 80 78 76 72 69 66 65 64 -1 -1 -1 -1 -1 -1 -1 -1 -1 -1 -1 -1 -1 -1 -1 -1 -1 -1 -1 -1 -1 -1 -1 -1 -1 -1 -1 -1 -1 -1 -1 -1 -1 -1 -1 -1 -1 -1 -1 -1 -1 -1 -1 -1 -1 -1 -1 -1 -1 -1 -1 -1 -1 -1 -1 -1 63 64 70 72 73 75 76 76 76 77 77 77 76 76 76 74 64 64 -1 81 83 85
63 63 -1 -1 -1 -1 -1 -1 -1 -1 -1 -1 -1 -1 -1 -1 -1 -1 -1 -1 -1 -1 -1 -1 -1 -1 -1 -1 -1 -1 -1 63 63 63 63 63 64 64 64 64 64 64 64 64 64 64 64 64 64 65 65 65 65 65 66 66 66 66 67 67 67 67 68 68 68 69 69 69 69 69 70 70 70 70 70 70 70 70 70 71 71 71 71 72 72 72 72 72 72 72 72 72 72 72 72 72 72 72 72 72 72 72 72 72 72 72 72 72 72 72 72 73 73 74 74 75 76 77 78 79 80 80 81 81 81 81 82 82 82 79 76 74 72 72 71 71 71 72 73 75 76 78 80 85 89 89 89 89 89 88 87 86 85 84 84 83 83 83 83 83 83 83 83 83 83 82 82 82 81 81 80 78 76 72 69 66 64 64 63 -1 -1 -1 -1 -1 -1 -1 -1 -1 -1 -1 -1 -1 -1 -1 -1 -1 -1 -1 -1 -1 -1 -1 -1 -1 -1 -1 -1 -1 -1 -1 -1 -1 -1 -1 -1 -1 -1 -1 -1 -1 -1 -1 -1 -1 -1 -1 -1 -1 -1 -1 -1 -1 -1 -1 64 69 78 79 81 82 83 83 84 85 85 85 85 83 80 84 85 86 86 86 86 86
63 63 -1 -1 -1 -1 -1 -1 -1 -1 -1 -1 -1 -1 -1 -1 -1 -1 -1 -1 -1 -1 -1 -1 -1 -1 -1 -1 -1 -1 -1 63 63 63 63 64 64 64 64 64 64 64 64 64 64 64 64 64 65 65 65 65 65 65 66 66 66 66 67 67 67 67 68 68 68 69 69 69 69 69 70 70 70 70 70 70 70 70 71 71 71 71 72 72 72 72 72 72 72 72 72 72 72 72 72 72 73 72 72 72 72 72 72 72 72 72 72 72 72 72 72 72 73 73 74 75 75 76 77 78 80 80 81 81 81 81 80 80 79 77 75 73 72 71 71 71 71 72 73 74 76 77 79 83 87 87 86 86 86 85 84 84 83 83 83 83 83 83 83 83 83 83 83 83 83 82 82 82 81 81 80 78 76 72 69 67 64 64 63 -1 -1 -1 -1 -1 -1 -1 -1 -1 -1 -1 -1 -1 -1 -1 -1 -1 -1 -1 -1 -1 -1 -1 -1 -1 -1 -1 -1 -1 -1 -1 -1 -1 -1 -1 -1 -1 -1 -1 -1 -1 -1 -1 -1 -1 -1 -1 -1 -1 -1 -1 -1 -1 -1 63 64 70 79 81 81 82 83 84 84 85 86 85 85 85 85 85 86 86 86 86 86 86
63 63 -1 -1 -1 -1 -1 -1 -1 -1 -1 -1 -1 -1 -1 -1 -1 -1 -1 -1 -1 -1 -1 -1 -1 -1 -1 -1 -1 -1 -1 63 63 63 63 64 64 64 64 64 64 64 64 64 64 64 64 65 65 65 65 65 65 66 66 66 66 67 67 67 67 68 68 68 68 69 69 69 69 70 70 70 70 70 70 70 70 71 71 71 71 72 72 72 72 72 72 72 71 72 72 72 72 72 72 72 73 73 72 72 72 72 72 72 72 72 72 72 72 72 72 72 72 73 73 74 75 76 77 78 80 80 81 81 81 80 78 78 77 76 75 73 72 71 71 71 71 72 72 74 75 77 78 80 85 84 84 84 84 83 82 81 80 81 82 83 83 83 83 83 83 83 83 83 83 82 82 82 82 81 80 78 77 72 69 67 65 64 63 63 -1 -1 -1 -1 -1 -1 -1 -1 -1 -1 -1 -1 -1 -1 -1 -1 -1 -1 -1 -1 -1 -1 -1 -1 -1 -1 -1 -1 -1 -1 -1 -1 -1 -1 -1 -1 -1 -1 -1 -1 -1 -1 -1 -1 -1 -1 -1 -1 -1 -1 -1 -1 -1 63 65 71 81 81 82 83 83 84 85 85 86 86 86 86 86 86 86 86 86 86 86 86
63 63 -1 -1 -1 -1 -1 -1 -1 -1 -1 -1 -1 -1 -1 -1 -1 -1 -1 -1 -1 -1 -1 -1 -1 -1 -1 -1 -1 -1 63 63 63 63 64 64 64 64 64 64 64 64 64 64 64 64 65 65 65 65 65 65 65 66 66 66 66 67 67 67 67 68 68 68 68 69 69 69 70 70 70 70 70 70 71 71 71 71 71 71 72 72 72 71 71 71 71 71 71 71 72 72 72 72 72 73 73 73 73 72 72 72 72 72 72 72 72 72 72 72 72 72 72 72 73 73 74 75 76 78 79 80 81 81 81 79 77 77 76 75 74 73 71 71 71 71 71 71 72 74 75 76 78 79 82 82 82 82 82 81 80 79 78 79 81 82 83 83 83 83 83 83 83 83 83 82 82 82 82 81 80 78 77 72 69 67 65 64 64 63 63 -1 -1 -1 -1 -1 -1 -1 -1 -1 -1 -1 -1 -1 -1 -1 -1 -1 -1 -1 -1 -1 -1 -1 -1 -1 -1 -1 -1 -1 -1 -1 -1 -1 -1 -1 -1 -1 -1 -1 -1 -1 -1 -1 -1 -1 -1 -1 -1 -1 -1 -1 -1 63 65 72 82 82 83 83 84 84 85 85 86 86 86 86 87 87 86 86 86 86 86 86
63 63 -1 -1 -1 -1 -1 -1 -1 -1 -1 -1 -1 -1 -1 -1 -1 -1 -1 -1 -1 -1 -1 -1 -1 -1 -1 -1 -1 -1 63 63 63 64 64 64 64 64 64 64 64 64 64 64 64 65 65 65 65 65 65 66 66 66 66 66 67 67 67 67 68 68 68 68 68 69 69 69 70 70 70 70 70 71 71 71 71 71 71 72 72 71 71 71 71 71 71 71 71 71 71 72 72 72 72 73 73 73 73 73 72 72 72 72 72 72 72 72 72 72 72 72 72 72 72 73 74 75 76 77 79 80 81 81 81 78 77 76 76 75 74 72 71 71 71 71 70 71 72 74 75 76 77 78 80 80 81 81 82 80 79 78 77 78 80 82 83 83 83 83 83 83 83 83 83 82 82 82 82 81 81 79 77 72 70 67 65 64 64 64 63 63 -1 -1 -1 -1 -1 -1 -1 -1 -1 -1 -1 -1 -1 -1 -1 -1 -1 -1 -1 -1 -1 -1 -1 -1 -1 -1 -1 -1 -1 -1 -1 -1 -1 -1 -1 -1 -1 -1 -1 -1 -1 -1 -1 -1 -1 -1 -1 -1 -1 -1 -1 63 81 82 83 83 83 84 84 85 85 86 86 86 87 87 87 87 87 86 86 86 86 86
63 63 -1 -1 -1 -1 -1 -1 -1 -1 -1 -1 -1 -1 -1 -1 -1 -1 -1 -1 -1 -1 -1 -1 -1 -1 -1 -1 -1 63 63 63 63 64 64 64 64 64 64 64 64 64 64 64 65 65 65 65 65 66 66 66 66 66 66 67 67 67 67 67 67 68 68 68 68 68 69 69 69 69 70 70 70 71 71 71 71 71 72 72 72 71 71 71 71 72 72 71 71 71 72 72 72 72 73 73 73 73 73 73 73 73 73 72 72 72 72 72 72 72 72 72 72 72 72 73 74 75 76 78 80 81 81 81 81 78 77 76 76 75 74 73 72 71 71 71 71 72 72 74 75 76 77 79 81 81 81 81 81 80 78 77 77 78 80 82 84 84 83 83 83 83 83 83 83 83 82 82 82 81 81 79 78 73 71 68 66 65 64 64 63 63 -1 -1 -1 -1 -1 -1 -1 -1 -1 -1 -1 -1 -1 -1 -1 -1 -1 -1 -1 -1 -1 -1 -1 -1 -1 -1 -1 -1 -1 -1 -1 -1 -1 -1 -1 -1 -1 -1 -1 -1 -1 -1 -1 -1 -1 -1 -1 -1 63 63 63 81 82 82 83 83 84 84 84 85 85 86 86 86 87 87 87 87 87 86 86 86 86 86
63 -1 -1 -1 -1 -1 -1 -1 -1 -1 -1 -1 -1 -1 -1 -1 -1 -1 -1 -1 -1 -1 -1 -1 -1 -1 -1 -1 63 63 63 63 64 64 64 64 64 64 64 64 64 64 64 65 65 65 65 65 66 66 66 66 66 66 67 67 67 67 67 67 67 67 67 68 68 68 68 68 68 69 69 70 70 71 71 71 71 72 72 72 71 71 71 71 72 72 72 71 71 71 72 72 72 72 73 73 73 73 73 73 73 73 73 73 72 72 72 72 72 72 72 72 72 72 73 73 74 75 77 78 80 81 81 81 81 79 77 77 76 75 74 73 72 72 72 72 71 72 73 74 75 76 77 79 82 81 81 81 81 80 78 77 77 78 79 82 84 84 84 84 84 84 84 84 84 83 83 82 82 81 81 80 78 74 71 69 67 66 65 64 64 63 -1 -1 -1 -1 -1 -1 -1 -1 -1 -1 -1 -1 -1 -1 -1 -1 -1 -1 -1 -1 -1 -1 -1 -1 -1 -1 -1 -1 -1 -1 -1 -1 -1 -1 -1 -1 -1 -1 -1 -1 -1 -1 -1 -1 -1 -1 -1 63 63 64 81 82 82 83 83 84 84 84 85 85 85 86 86 86 86 87 87 87 86 86 86 86 86 86
63 -1 -1 -1 -1 -1 -1 -1 -1 -1 -1 -1 -1 -1 -1 -1 -1 -1 -1 -1 -1 -1 -1 -1 -1 -1 -1 63 63 63 63 63 64 64 64 64 64 64 64 64 64 64 65 65 65 65 65 66 66 66 66 66 66 67 67 67 67 67 67 67 67 67 67 67 68 68 68 68 68 68 69 70 70 70 71 71 71 72 72 72 72 71 71 71 72 72 72 72 71 72 72 -1 -1 73 73 73 73 73 73 73 73 73 73 73 73 72 72 72 72 72 72 72 72 72 73 74 74 76 77 78 80 81 81 81 81 80 78 77 76 75 75 74 73 72 72 72 72 72 73 74 74 76 77 80 82 82 82 81 81 79 78 77 77 78 79 82 85 85 85 84 84 84 85 85 85 84 83 83 82 82 81 80 79 75 72 71 69 67 65 64 64 63 -1 -1 -1 -1 -1 -1 -1 -1 -1 -1 -1 -1 -1 -1 -1 -1 -1 -1 -1 -1 -1 -1 -1 -1 -1 -1 -1 -1 -1 -1 63 63 63 63 63 63 63 63 -1 -1 63 63 63 63 63 63 63 63 64 64 82 82 83 83 84 84 84 84 85 85 85 86 86 86 86 86 87 86 86 86 86 86 86 86
63 -1 -1 -1 -1 -1 -1 -1 -1 -1 -1 -1 -1 -1 -1 -1 -1 -1 -1 -1 -1 -1 -1 -1 -1 -1 63 63 63 63 63 64 64 64 64 64 64 64 64 64 64 65 65 65 65 65 66 66 66 66 66 66 67 67 67 67 67 67 67 67 67 67 67 67 68 67 67 67 67 68 69 69 70 70 71 71 72 72 72 72 70 70 70 72 72 72 72 72 72 72 -1 -1 73 73 73 73 73 74 74 74 74 74 73 73 73 72 72 72 72 72 72 72 72 73 73 74 75 76 77 78 80 81 81 81 82 80 79 77 77 76 75 74 73 73 73 73 72 73 73 74 74 76 78 80 83 82 82 81 81 79 78 77 76 78 79 83 86 86 85 85 85 85 86 86 87 85 84 83 83 82 81 81 79 76 74 72 70 68 66 65 64 63 -1 -1 -1 -1 -1 -1 -1 -1 -1 -1 -1 -1 -1 -1 -1 -1 -1 -1 -1 -1 -1 -1 -1 -1 -1 -1 -1 63 63 63 63 63 63 63 63 63 63 63 63 63 63 63 63 63 63 63 63 64 64 66 82 83 83 84 84 84 84 85 85 85 85 86 86 86 86 86 86 86 86 86 85 86 86 86
-1 -1 -1 -1 -1 -1 -1 -1 -1 -1 -1 -1 -1 -1 -1 -1 -1 -1 -1 -1 -1 -1 -1 -1 63 63 63 63 63 63 64 64 64 64 64 64 64 64 64 64 65 65 65 65 65 66 66 66 66 66 67 67 67 67 67 67 67 67 67 67 67 67 67 67 67 67 67 67 67 68 68 69 69 70 70 71 71 71 71 72 72 70 70 72 72 72 72 72 72 72 -1 -1 -1 73 73 73 73 74 74 74 74 74 73 73 73 72 72 72 72 72 72 72 73 73 74 74 75 76 77 79 80 81 81 81 82 81 79 78 78 77 76 75 75 75 75 75 75 75 76 76 76 78 80 83 84 83 83 82 82 80 78 77 77 78 80 84 86 86 86 86 86 86 86 86 87 85 84 84 83 82 81 79 78 75 73 72 70 68 67 65 64 64 63 -1 -1 -1 -1 -1 -1 -1 -1 -1 -1 -1 -1 -1 -1 -1 -1 -1 -1 -1 -1 -1 -1 -1 -1 -1 -1 63 63 63 63 63 63 63 63 63 63 63 63 63 63 63 63 63 63 63 63 64 64 65 67 66 65 82 84 84 84 85 85 85 85 85 86 86 86 86 86 86 86 86 86 86 86 86
-1 -1 -1 -1 -1 -1 -1 -1 -1 -1 -1 -1 -1 -1 -1 -1 -1 -1 -1 -1 -1 -1 63 63 63 63 63 63 64 64 64 64 64 64 64 64 64 64 64 65 65 65 65 65 66 66 66 66 67 67 67 67 67 67 67 67 68 67 67 67 67 67 67 67 67 67 67 67 67 67 68 68 69 69 70 70 70 71 71 72 72 70 70 72 72 72 72 -1 -1 72 -1 -1 -1 73 73 73 73 74 74 74 74 74 73 73 73 73 72 72 72 72 72 73 73 74 74 75 75 76 78 79 80 81 81 82 82 81 80 79 79 78 78 77 77 77 77 78 78 79 79 79 89 83 85 85 85 85 84 83 83 81 79 78 77 78 80 84 87 87 87 87 86 86 87 87 87 86 85 84 83 82 80 78 77 75 73 72 70 69 67 66 64 64 63 63 -1 -1 -1 -1 -1 -1 -1 -1 -1 -1 -1 -1 -1 -1 -1 -1 -1 -1 -1 -1 -1 -1 -1 -1 63 63 63 63 63 63 63 63 63 63 63 63 63 63 63 63 63 63 63 63 63 63 64 64 65 65 65 80 84 84 84 84 85 85 85 85 85 86 86 86 86 86 86 86 86 86 86 86
-1 -1 -1 -1 -1 -1 -1 -1 -1 -1 -1 -1 -1 -1 -1 -1 -1 -1 -1 -1 63 63 63 63 63 63 63 64 64 64 64 64 64 64 64 64 64 64 64 65 65 65 65 66 66 66 66 67 67 67 67 67 68 68 68 68 68 67 67 67 66 67 67 67 67 67 67 67 66 67 67 68 68 69 69 69 70 70 70 71 70 70 70 71 72 72 72 -1 -1 -1 -1 -1 -1 73 73 73 73 74 74 74 74 74 74 73 73 73 73 72 72 72 73 73 74 74 75 75 76 77 78 79 80 81 81 82 82 82 81 81 81 80 80 80 80 81 82 83 84 86 87 89 89 89 88 87 87 86 86 85 84 82 80 78 78 79 81 86 88 88 88 87 87 87 87 87 87 86 85 84 84 81 79 77 76 74 73 71 70 69 68 66 65 64 64 63 63 63 -1 -1 -1 -1 -1 -1 -1 -1 -1 -1 -1 -1 -1 -1 -1 -1 -1 -1 -1 -1 63 63 63 63 63 63 63 63 63 63 63 63 63 63 63 63 63 63 63 63 63 63 63 63 63 64 64 65 65 77 83 84 84 84 84 85 85 85 85 85 86 86 86 86 86 86 86 86 86 86
-1 -1 -1 -1 -1 -1 -1 -1 -1 -1 -1 -1 -1 -1 -1 -1 -1 -1 -1 63 63 63 63 63 63 64 64 64 64 64 64 64 64 64 64 64 64 64 64 65 65 65 66 66 66 66 67 67 67 67 67 68 68 68 68 68 68 68 67 67 66 66 67 67 67 67 67 66 66 67 67 68 68 68 69 69 69 69 70 70 69 69 70 71 71 71 70 -1 -1 -1 -1 -1 -1 73 73 73 73 74 74 74 74 74 74 73 73 73 73 73 72 73 73 74 74 75 75 76 76 77 78 79 80 81 81 82 82 82 83 83 83 83 84 84 84 86 87 88 91 91 90 90 90 90 90 89 89 88 88 87 87 85 82 79 78 80 83 87 90 89 89 89 88 88 88 87 87 86 86 85 84 81 79 77 75 74 72 71 70 69 68 67 66 65 64 64 63 63 63 -1 -1 -1 -1 -1 -1 -1 -1 -1 -1 -1 -1 -1 -1 -1 -1 -1 -1 63 63 63 63 63 63 63 63 63 63 63 63 63 63 63 63 63 63 63 63 63 63 63 63 63 63 63 63 65 71 76 83 83 84 84 84 84 85 85 85 85 85 85 86 86 86 86 86 86 86 86
-1 -1 -1 -1 -1 -1 -1 -1 -1 -1 -1 -1 -1 -1 -1 -1 -1 63 63 63 63 63 63 64 64 64 64 64 64 64 64 64 64 64 58 64 64 64 65 65 65 65 66 66 66 66 67 67 67 67 68 68 68 68 68 68 68 68 68 67 67 67 67 67 68 67 67 67 67 67 68 68 69 69 69 70 70 70 71 69 69 69 70 72 72 72 72 -1 -1 -1 -1 -1 -1 -1 -1 73 73 73 73 73 73 73 73 73 73 73 73 73 73 73 74 74 75 75 76 76 77 77 78 79 80 81 81 82 82 82 83 83 83 84 84 85 86 87 88 90 92 91 91 91 91 91 90 90 90 89 89 88 88 86 84 80 79 81 85 88 90 89 89 89 88 88 87 87 86 86 85 84 83 80 78 76 75 74 72 71 70 69 68 67 66 65 64 64 64 63 63 63 63 -1 -1 -1 -1 -1 -1 -1 -1 -1 -1 -1 -1 -1 -1 -1 63 63 63 63 63 63 63 63 63 63 63 63 63 63 63 63 63 63 63 63 63 63 63 63 63 63 63 63 63 64 65 70 73 74 76 78 80 82 82 83 84 84 85 85 85 85 86 86 86 86 86 85
-1 -1 -1 -1 -1 -1 -1 -1 -1 -1 -1 -1 -1 -1 -1 63 63 63 63 63 63 64 64 64 64 64 64 64 64 64 64 59 58 58 54 54 54 64 65 65 65 65 66 66 66 66 67 67 67 67 68 68 68 68 68 68 68 68 68 68 68 68 68 68 69 68 68 68 68 68 69 69 70 70 70 71 71 71 70 70 69 69 72 72 72 72 72 -1 -1 -1 72 70 70 -1 -1 70 -1 73 73 73 73 73 73 73 73 73 73 73 73 74 74 75 75 76 76 77 77 78 79 79 80 81 81 81 82 82 83 83 83 84 85 86 87 88 89 91 93 92 92 92 91 91 91 91 91 90 90 90 89 88 86 84 81 85 87 88 89 89 89 88 88 88 87 87 86 85 84 83 82 79 78 76 75 74 72 71 70 69 69 68 67 66 65 64 64 64 64 63 63 63 63 63 63 -1 -1 -1 -1 -1 -1 -1 -1 -1 -1 -1 63 63 63 63 63 63 63 63 64 64 64 63 63 63 63 63 63 63 63 63 63 63 63 63 63 63 63 63 63 64 65 67 69 69 70 70 70 64 70 70 82 83 84 85 85 85 85 85 85 85 85 85
-1 -1 -1 -1 -1 -1 -1 -1 -1 -1 -1 -1 63 63 63 63 63 63 63 64 64 64 64 64 64 64 64 64 64 64 59 58 58 58 53 54 54 54 65 65 65 65 66 66 66 67 67 67 67 68 68 68 68 68 68 69 69 69 69 68 68 69 69 69 70 69 69 69 68 69 69 70 71 71 72 72 72 72 70 70 73 73 73 73 73 72 72 -1 -1 -1 -1 -1 -1 -1 -1 -1 71 72 72 72 72 72 72 72 72 73 73 73 74 74 75 75 76 76 77 77 77 78 79 79 80 80 81 81 82 82 83 83 83 85 86 87 88 90 91 92 94 93 93 92 92 92 92 92 92 92 91 91 91 90 89 88 87 88 88 89 89 89 89 88 88 87 87 86 86 85 84 82 81 79 77 76 75 74 72 71 70 70 69 68 67 66 66 65 64 64 64 64 64 64 64 63 63 63 -1 -1 -1 -1 -1 -1 -1 -1 -1 -1 63 63 63 63 63 63 63 64 64 64 64 64 64 64 63 63 63 63 63 63 63 63 63 63 63 63 63 63 63 64 64 65 66 66 66 65 64 64 64 64 63 81 83 84 85 85 85 85 85 85 85 85
-1 -1 -1 -1 -1 -1 -1 -1 -1 -1 -1 63 63 63 63 63 63 64 64 64 64 64 64 64 64 64 64 64 64 60 59 58 58 58 53 54 54 54 65 65 65 65 66 66 66 67 67 67 67 68 68 68 68 68 69 69 69 69 69 69 69 70 70 70 71 70 70 69 69 70 70 71 72 73 73 73 73 73 73 73 73 73 73 74 74 73 72 72 70 70 70 -1 -1 -1 -1 -1 -1 72 72 72 72 72 72 72 72 72 73 73 74 74 75 76 76 77 77 77 78 78 79 79 80 80 81 81 81 82 83 83 84 85 87 88 90 91 92 93 95 94 94 93 93 93 94 94 94 94 93 93 92 92 91 91 90 90 90 89 89 89 88 88 88 87 87 86 85 84 83 81 80 78 77 75 74 73 72 71 70 70 69 69 68 67 67 66 65 65 64 64 64 64 64 64 64 63 -1 -1 -1 -1 -1 -1 -1 -1 -1 -1 63 63 63 63 63 63 64 64 64 64 64 64 64 64 64 63 63 63 63 63 63 63 63 63 63 63 63 63 63 63 64 64 64 64 64 64 64 64 64 64 64 63 82 83 84 84 84 84 84 85 85 85
-1 -1 -1 -1 -1 -1 -1 -1 -1 -1 63 63 60 59 59 64 64 64 64 64 64 64 64 64 64 64 64 64 64 59 59 58 58 58 54 54 55 65 65 65 65 65 66 66 66 67 67 67 67 68 68 68 68 69 69 69 69 69 69 69 69 70 70 71 71 71 70 70 70 70 71 71 72 72 73 73 74 73 73 73 73 73 73 73 73 72 72 71 71 71 71 70 -1 -1 -1 -1 71 71 71 71 71 72 72 72 72 72 72 73 74 74 75 75 76 76 77 77 78 78 79 79 80 80 81 81 81 82 83 83 84 85 86 88 90 91 92 93 94 93 93 93 93 93 94 94 94 93 93 93 92 92 91 91 91 90 90 89 89 89 88 88 87 87 86 85 84 83 82 80 79 78 76 75 74 73 72 72 71 71 70 70 69 69 68 67 67 66 65 65 64 64 64 64 64 63 -1 -1 -1 -1 -1 -1 -1 -1 -1 -1 63 63 63 63 63 64 64 64 64 64 64 64 64 64 64 64 63 63 63 63 63 63 63 63 63 63 63 63 63 63 64 64 64 64 64 64 64 64 64 64 64 65 81 83 84 84 84 84 84 84 84 84
-1 -1 -1 -1 -1 -1 -1 -1 -1 -1 63 63 60 60 64 64 64 64 64 64 64 64 64 64 64 64 64 64 61 59 59 59 58 58 57 57 57 65 65 65 65 66 66 66 67 67 67 67 67 68 68 68 68 69 69 69 69 69 69 69 70 70 70 71 71 71 71 71 71 71 71 72 72 72 73 73 74 74 73 73 73 73 73 72 72 72 71 71 71 71 71 71 71 71 71 71 71 71 71 71 71 71 71 72 72 72 72 73 73 74 75 75 76 76 77 77 78 78 79 79 80 80 81 81 81 82 83 83 84 85 86 88 89 90 91 92 93 93 93 93 93 93 93 94 94 93 93 93 92 92 92 91 91 90 90 90 89 89 88 88 87 86 85 84 83 82 80 79 78 77 76 75 74 73 73 72 72 71 71 71 70 70 69 68 68 67 66 65 64 64 64 64 64 63 -1 -1 -1 -1 -1 -1 -1 -1 -1 63 63 63 63 63 63 64 64 64 64 64 64 64 64 64 64 64 64 64 63 63 63 63 63 63 63 63 63 63 63 64 64 64 64 64 64 64 64 64 64 64 64 65 65 83 84 84 84 84 84 84 84 84
-1 -1 -1 -1 -1 -1 -1 -1 -1 63 63 63 60 60 61 64 64 64 64 64 64 64 64 64 64 64 64 64 61 60 59 59 59 59 57 65 65 65 65 65 66 66 66 66 67 67 67 67 67 68 68 68 69 69 69 69 69 69 69 70 70 70 71 71 72 71 71 71 71 71 72 72 72 72 73 73 74 74 73 73 73 73 72 72 72 71 71 71 70 70 70 70 70 70 70 70 70 70 71 71 71 71 71 71 71 72 72 72 73 74 74 75 76 76 77 77 78 78 79 79 80 80 80 81 81 82 83 83 84 85 86 88 89 90 90 91 92 92 93 93 93 93 93 93 94 93 93 93 92 92 92 91 91 91 90 90 89 89 88 87 87 86 85 83 82 81 79 78 78 77 76 75 74 73 73 72 72 72 72 71 71 70 70 69 69 68 67 66 65 65 64 64 64 64 63 -1 -1 -1 -1 -1 -1 -1 -1 63 63 63 63 63 64 64 64 64 64 64 64 64 64 64 64 64 64 64 64 64 63 63 63 63 63 63 63 64 64 64 64 64 64 64 64 64 64 64 64 64 64 65 65 82 84 84 84 84 84 84 84 84
-1 -1 -1 -1 -1 -1 -1 -1 63 63 63 64 61 61 61 62 64 64 64 64 64 64 64 64 65 65 65 65 61 60 60 59 59 59 57 65 65 65 65 65 66 66 66 66 67 67 67 67 67 68 68 68 69 69 69 69 69 69 69 70 70 70 71 71 72 72 72 72 72 72 72 72 72 72 73 73 74 74 73 73 73 72 72 71 71 71 70 70 70 70 70 70 70 70 70 70 70 70 70 70 70 70 71 71 71 72 72 72 73 74 74 75 75 76 77 77 78 78 79 79 80 80 80 81 81 82 83 83 84 85 86 87 89 89 90 91 91 92 92 93 93 93 93 93 93 93 93 93 92 92 92 91 91 91 90 90 89 89 88 87 86 85 84 83 82 80 79 78 77 76 75 75 73 73 73 73 73 72 72 72 72 71 71 70 70 69 68 66 65 65 65 65 65 64 63 -1 -1 -1 -1 -1 -1 -1 -1 63 63 63 63 64 64 64 64 64 64 64 64 64 64 64 64 64 64 64 64 64 64 64 63 63 63 63 64 64 64 64 64 64 64 64 64 64 64 64 64 64 64 66 69 82 83 83 83 83 83 83 83 83
-1 -1 -1 -1 -1 -1 -1 -1 63 63 63 64 62 61 61 62 64 64 64 64 64 64 65 65 65 65 65 65 61 60 60 60 60 60 58 65 65 65 65 66 66 66 66 66 67 67 67 67 67 68 68 68 69 69 69 69 69 69 70 70 70 70 70 70 70 70 70 70 70 70 70 71 67 67 72 72 73 73 72 72 72 71 71 71 71 70 70 70 70 70 70 70 70 70 70 70 70 70 70 70 70 70 71 71 71 71 72 72 72 73 74 74 75 76 76 77 78 78 78 79 80 80 80 81 81 82 82 83 84 84 85 86 87 88 88 89 89 90 91 92 92 92 92 92 92 92 92 92 92 92 91 91 91 91 90 90 89 89 88 87 86 85 84 83 81 80 79 78 77 77 76 75 74 74 74 73 73 73 73 72 72 72 71 71 70 69 68 67 65 65 65 64 64 64 63 -1 -1 -1 -1 -1 -1 -1 -1 63 63 63 64 64 64 64 64 64 64 64 64 64 64 64 64 64 64 64 64 64 64 64 64 63 63 64 64 64 64 64 64 64 64 64 64 64 64 64 64 64 64 66 69 72 83 83 83 83 83 83 83 83
-1 -1 -1 -1 -1 -1 -1 63 63 63 64 64 64 62 62 62 64 64 64 64 65 65 65 65 65 65 65 65 65 61 60 60 60 60 61 56 65 65 66 66 66 66 66 67 67 67 67 67 67 68 68 69 69 69 69 69 69 70 70 70 70 69 69 69 68 68 68 68 68 68 67 67 67 67 67 71 71 71 71 71 71 71 70 70 70 70 70 70 70 70 70 70 70 70 70 70 70 70 70 70 70 70 70 71 71 71 72 72 72 73 73 74 75 75 76 77 77 78 78 79 79 80 80 81 81 82 82 83 83 84 85 85 86 86 87 87 88 89 90 91 91 92 92 92 92 92 92 91 91 91 91 91 91 91 90 90 89 89 88 87 86 85 84 82 81 80 79 78 78 77 76 75 74 74 74 74 74 73 73 73 72 72 71 71 70 69 68 67 66 65 64 64 64 63 63 -1 -1 -1 -1 -1 -1 -1 -1 63 63 63 64 64 64 64 64 64 64 64 64 64 64 64 64 64 64 64 64 64 64 64 64 64 63 64 64 64 64 64 64 64 64 64 64 64 64 64 64 64 64 66 68 71 83 83 83 83 83 83 83 83
-1 -1 -1 -1 -1 -1 -1 63 63 64 64 64 64 63 62 63 63 63 64 65 65 65 65 65 65 65 65 65 65 61 61 61 61 61 61 62 65 66 66 66 66 66 66 67 67 67 67 67 68 68 68 69 69 69 69 70 70 70 70 70 70 69 68 67 67 67 67 66 66 67 67 67 67 67 69 70 70 70 70 70 70 70 70 70 70 70 70 70 70 70 70 69 69 69 69 69 69 69 69 70 70 70 70 70 71 71 71 72 72 -1 73 74 74 75 75 76 77 77 78 79 79 80 80 80 81 81 82 82 83 83 84 84 85 85 85 86 86 87 88 90 91 91 91 91 91 91 91 91 91 91 91 91 91 90 90 90 89 89 88 87 86 85 84 82 81 80 80 79 78 77 76 75 74 74 74 74 74 74 74 73 73 72 72 71 71 70 68 67 66 65 64 64 64 63 -1 -1 -1 -1 -1 -1 -1 -1 -1 63 63 63 64 64 64 64 64 64 65 64 64 64 64 64 64 64 64 64 64 64 64 64 64 64 63 64 64 64 64 64 64 64 64 64 64 64 64 64 64 64 64 65 68 70 82 83 83 83 83 83 82 82
-1 -1 -1 -1 -1 63 63 63 64 64 64 64 64 64 64 63 63 63 63 64 65 65 65 66 66 66 66 66 66 66 61 61 61 61 61 61 66 66 66 66 66 66 67 67 67 67 67 67 68 68 68 69 69 70 70 70 70 70 70 70 70 69 68 66 66 65 65 65 65 65 66 66 67 67 68 68 69 69 69 69 69 69 69 69 69 69 69 70 70 69 69 69 69 69 69 69 69 69 69 69 69 70 70 70 71 71 71 72 -1 -1 73 73 74 74 75 76 76 77 78 78 79 80 80 80 81 81 82 82 83 83 83 83 83 84 84 84 84 86 87 89 90 90 90 90 90 90 90 90 90 91 91 91 91 90 90 90 89 89 88 87 86 85 83 82 81 81 80 80 79 78 77 76 75 75 75 75 75 75 74 74 74 73 72 72 71 70 69 67 66 65 64 64 64 63 -1 -1 -1 -1 -1 -1 -1 -1 -1 63 63 64 64 64 64 64 64 64 65 65 64 64 64 64 64 64 64 64 64 64 64 64 64 64 64 64 64 64 64 64 64 64 64 64 64 64 64 64 64 64 64 65 68 69 82 82 82 83 83 82 82 82
-1 -1 -1 -1 63 63 63 63 64 64 64 64 64 64 65 64 63 63 63 63 64 66 66 66 66 66 66 66 66 66 61 61 61 61 61 62 66 66 66 66 67 67 67 67 67 67 67 68 68 68 69 69 70 70 70 70 70 70 70 70 70 69 68 67 66 66 65 65 65 65 66 66 67 67 68 68 68 69 69 69 69 69 69 69 69 69 69 70 70 69 69 69 69 69 69 69 69 69 69 69 69 70 70 70 70 71 71 72 72 -1 -1 73 73 74 75 75 76 77 77 78 79 79 80 80 80 81 81 81 82 82 82 83 83 83 83 83 83 85 86 87 88 88 88 88 88 88 89 89 90 90 90 90 91 90 90 89 89 88 88 87 86 85 83 82 81 80 80 79 79 78 77 76 75 75 75 75 75 75 75 74 74 73 72 72 71 70 69 67 66 65 64 64 63 63 -1 -1 -1 -1 -1 -1 -1 -1 -1 63 63 64 64 64 64 64 64 64 65 64 64 64 64 64 64 64 64 64 64 64 64 64 64 64 64 64 64 64 64 64 64 64 64 64 64 64 64 64 64 64 64 65 67 68 70 71 72 76 77 77 77 77
-1 -1 -1 -1 63 63 63 64 64 64 64 64 64 65 65 65 66 63 63 63 63 66 66 66 66 66 66 66 66 66 66 61 61 61 61 62 66 66 66 67 67 67 67 67 67 67 68 68 68 68 69 69 70 70 70 70 70 70 70 70 70 69 68 67 66 66 65 65 65 65 66 66 66 67 67 68 68 68 68 69 69 69 69 69 69 69 69 70 70 69 69 69 69 69 69 69 69 69 69 69 69 70 70 70 70 71 71 72 72 -1 -1 73 73 74 75 75 76 76 77 78 79 79 79 79 80 80 80 81 81 81 82 82 82 82 82 83 83 83 84 85 86 86 86 86 86 87 88 88 89 90 90 90 90 90 90 89 89 88 87 87 86 85 83 82 81 80 80 79 79 78 77 77 76 76 76 76 76 76 75 75 75 74 72 72 71 70 69 68 66 65 64 63 63 -1 -1 -1 -1 -1 -1 -1 -1 -1 -1 63 63 63 64 64 64 64 64 64 64 64 64 64 64 64 64 64 64 64 64 64 64 64 64 64 64 64 64 64 64 64 64 64 64 64 64 64 64 64 64 64 64 65 66 67 68 69 71 73 75 75 75 75
-1 -1 -1 -1 63 63 63 64 64 64 64 64 64 65 65 66 66 66 63 63 63 63 66 66 66 66 67 67 67 67 63 62 62 62 62 62 63 66 67 67 67 67 67 67 67 67 68 68 68 68 69 69 70 70 70 70 70 70 70 70 70 69 68 67 66 66 65 65 65 65 66 66 66 67 67 67 68 68 68 68 69 69 69 69 69 69 69 70 70 69 69 69 69 69 69 69 69 69 69 69 69 69 70 70 70 71 71 71 72 72 72 72 73 74 74 75 75 76 77 77 78 78 79 79 79 79 80 80 81 81 81 81 82 82 82 82 82 82 83 83 84 84 84 84 85 86 87 88 89 89 89 90 90 90 89 89 88 88 87 87 86 84 83 82 80 80 79 79 78 78 77 77 77 77 77 77 77 76 76 76 76 74 73 72 71 70 69 68 66 65 64 63 -1 -1 -1 -1 -1 -1 -1 -1 -1 -1 -1 63 63 63 64 64 64 64 64 64 64 64 64 64 64 64 64 64 64 64 64 64 64 64 64 64 64 64 64 64 64 64 64 64 64 64 64 64 64 64 64 64 64 64 65 65 66 68 70 72 74 73 73 73
-1 -1 -1 63 63 63 63 64 64 64 64 62 65 61 66 66 66 66 66 63 63 63 63 67 67 67 67 67 67 63 62 62 62 62 62 62 66 67 67 67 67 67 67 67 67 68 68 68 68 69 69 69 70 70 70 70 70 70 70 70 70 69 69 68 67 66 66 65 65 65 66 66 66 66 67 67 67 68 68 68 69 69 69 69 69 69 69 70 70 69 69 69 69 69 69 69 68 69 69 69 69 69 70 70 70 70 71 71 72 -1 -1 -1 73 73 74 75 75 76 76 77 78 78 78 78 79 79 79 79 80 80 80 81 81 81 81 81 81 82 82 82 82 83 83 83 83 84 85 87 88 89 89 89 90 89 89 89 88 87 87 86 86 84 83 81 80 79 79 78 77 77 77 77 77 77 78 78 78 78 77 77 77 75 73 72 71 70 69 68 67 64 64 63 -1 -1 -1 -1 -1 -1 -1 -1 -1 -1 -1 63 63 63 64 64 64 64 64 64 64 64 64 64 64 64 64 64 64 64 64 64 64 64 64 64 64 64 64 64 64 64 64 64 64 64 64 64 64 64 64 64 64 64 64 64 64 66 69 71 73 73 73 73
-1 -1 -1 63 64 64 64 64 64 64 62 61 61 66 60 60 66 66 66 66 63 67 67 67 67 67 67 63 63 63 62 62 62 62 62 67 67 67 67 67 67 67 68 68 68 68 68 68 68 69 69 69 70 70 70 70 70 70 70 70 70 69 69 68 68 66 65 65 65 65 66 66 66 66 67 67 67 67 68 68 69 69 69 69 69 69 69 69 69 69 69 69 69 69 69 69 68 68 69 69 69 69 69 70 70 70 71 71 -1 -1 -1 -1 -1 73 74 74 75 76 76 77 77 77 78 78 78 78 78 78 79 79 79 79 80 80 80 81 81 81 81 81 81 82 82 82 82 83 84 85 86 87 87 88 89 88 88 87 87 87 86 85 85 83 82 81 79 78 78 77 76 77 77 77 77 77 77 77 78 77 77 77 77 75 74 72 72 70 69 68 67 65 64 63 -1 -1 -1 -1 -1 -1 -1 -1 -1 -1 -1 -1 63 63 63 64 64 64 64 64 64 64 64 64 64 64 64 64 64 64 64 64 64 64 64 64 64 64 64 64 64 64 64 64 64 64 64 64 64 64 64 64 64 64 64 64 65 66 68 70 71 71 71 71
-1 -1 63 63 64 64 64 64 64 62 62 61 60 60 60 60 67 67 67 67 67 67 67 67 67 67 62 62 62 62 62 62 62 62 67 67 67 67 67 67 68 68 68 68 68 68 68 68 68 69 69 69 69 70 70 70 70 70 70 70 70 69 69 69 69 65 65 65 65 65 67 67 66 66 67 67 67 67 68 68 68 68 69 69 69 69 69 69 69 69 69 69 69 69 69 69 68 68 68 69 69 69 69 70 70 70 71 71 -1 -1 -1 -1 -1 -1 73 74 75 75 76 76 77 77 77 77 78 78 78 78 78 77 77 77 77 78 78 79 79 80 80 80 80 81 81 81 81 82 83 83 84 85 86 86 87 87 87 86 86 86 85 85 84 83 81 80 78 77 77 76 76 76 76 76 76 76 77 77 77 77 77 77 77 75 74 72 72 71 70 68 67 65 64 63 -1 -1 -1 -1 -1 -1 -1 -1 -1 -1 -1 -1 -1 63 63 63 64 64 64 64 64 64 64 64 64 64 64 65 65 64 64 64 64 64 64 64 64 64 64 64 64 64 64 64 64 64 64 64 64 64 64 64 64 65 65 65 65 66 67 68 69 69 70 70
63 63 63 64 64 64 63 63 62 62 62 60 60 60 60 60 67 67 67 67 67 67 67 67 62 63 62 62 62 62 62 62 63 67 67 67 67 67 68 68 68 68 68 68 68 68 68 68 68 69 69 69 69 69 69 70 70 70 70 70 70 69 69 69 69 69 64 65 69 68 68 67 66 66 67 67 67 67 68 68 68 68 68 69 69 69 69 69 69 69 69 69 69 68 68 68 68 68 68 68 69 69 69 70 70 70 71 71 -1 -1 -1 -1 -1 70 73 74 74 75 75 76 76 77 77 77 77 77 77 77 77 76 76 76 75 76 76 77 77 77 77 78 78 78 79 79 80 81 81 82 82 83 84 85 86 86 86 85 85 85 84 84 83 82 81 79 77 77 76 76 75 75 75 75 75 76 76 77 77 77 77 77 77 75 74 73 72 71 70 69 68 65 64 63 -1 -1 -1 -1 -1 -1 -1 -1 -1 -1 -1 -1 -1 -1 63 63 64 64 64 64 64 64 64 64 64 64 65 65 65 65 65 64 64 64 64 64 64 64 64 64 64 64 64 64 64 64 64 64 64 64 64 65 65 65 65 66 66 66 67 67 67 68 68 68
64 64 64 64 63 63 63 63 62 61 60 60 60 60 60 60 67 67 67 67 67 67 67 67 68 68 62 62 62 62 62 67 67 67 67 68 68 68 68 68 68 68 68 68 68 68 68 68 68 69 69 69 69 69 69 69 70 70 70 70 69 70 70 70 70 70 70 70 71 69 68 67 66 66 67 67 67 67 67 68 68 68 68 68 69 69 69 69 69 69 69 69 68 68 68 68 68 68 68 68 68 69 69 69 70 70 71 71 70 -1 -1 -1 -1 72 73 74 74 75 75 75 76 76 76 77 77 77 76 76 76 75 75 74 74 74 74 74 74 74 74 74 75 75 75 76 77 78 79 80 81 82 83 84 85 85 84 84 84 84 83 83 82 81 80 78 77 76 76 75 74 74 75 75 75 75 76 76 77 77 77 77 77 76 74 73 73 72 70 69 68 66 64 63 -1 -1 -1 -1 -1 -1 -1 -1 -1 -1 -1 -1 -1 -1 -1 63 64 64 64 64 64 64 64 64 64 65 65 65 65 65 65 65 64 64 64 64 64 64 64 64 64 64 64 64 64 64 64 64 64 65 65 65 65 65 66 66 66 66 66 66 65 66 66 66
64 64 64 64 64 63 63 63 61 61 60 60 60 60 60 60 60 67 67 67 67 67 67 68 68 68 68 67 67 67 67 67 67 67 67 68 68 68 68 68 68 68 68 68 68 68 68 68 68 69 69 69 69 69 69 69 70 70 70 70 69 70 70 70 70 70 70 70 71 69 68 67 66 66 67 67 67 67 67 68 68 68 68 68 68 68 69 69 69 69 68 68 68 68 68 68 68 68 68 68 68 69 69 69 70 70 70 71 71 72 -1 72 72 73 73 73 74 74 75 75 76 76 76 76 76 76 76 75 75 75 74 73 73 73 72 72 72 72 72 73 73 73 74 74 75 76 77 78 79 81 82 82 83 83 83 83 83 83 82 82 81 80 78 77 75 75 75 75 74 74 74 75 75 75 75 76 76 76 76 76 76 75 74 73 72 71 70 69 68 66 64 64 63 -1 -1 -1 -1 -1 -1 -1 -1 -1 -1 -1 -1 -1 -1 63 63 63 64 64 64 64 64 64 64 65 65 65 66 66 66 66 66 65 65 65 64 64 64 64 64 64 64 65 65 65 65 65 65 65 65 65 65 65 66 66 66 66 66 66 66 66 66 67
64 64 64 64 64 64 65 65 61 60 60 60 60 60 60 60 60 60 67 67 68 68 68 68 68 68 68 68 67 67 67 67 67 67 68 68 68 68 68 68 68 68 68 68 68 61 61 62 68 68 69 69 69 69 69 69 70 70 70 70 70 70 70 70 70 70 70 70 70 65 65 65 66 66 67 67 67 67 67 68 68 68 68 68 68 68 68 68 68 68 68 68 68 68 68 68 68 68 68 68 68 68 69 69 69 70 70 71 71 72 72 72 72 73 73 73 74 74 75 75 75 76 76 76 76 76 75 75 74 74 73 73 72 72 72 72 72 72 72 72 72 72 73 73 73 74 76 77 77 79 81 81 82 82 82 82 82 81 81 81 80 79 77 76 75 75 74 74 74 74 74 74 74 75 75 75 76 76 76 76 76 75 74 73 72 71 70 70 68 66 64 64 63 63 -1 -1 -1 -1 -1 -1 -1 -1 -1 -1 -1 -1 -1 -1 63 63 63 64 64 64 64 64 65 65 65 66 66 66 66 67 67 66 65 65 65 64 64 64 64 65 65 65 65 65 65 65 65 65 65 65 65 65 66 66 66 66 66 66 66 66 66 67
64 64 64 64 64 65 65 65 61 60 60 60 60 60 60 60 60 60 68 68 68 68 68 68 68 68 68 68 68 67 67 67 67 67 68 68 68 68 68 68 68 68 68 68 61 61 61 61 62 68 69 69 69 69 69 69 70 70 70 70 70 70 70 70 70 70 70 70 70 69 65 65 66 66 66 67 67 67 67 67 68 68 68 68 68 68 68 68 68 68 68 68 68 68 68 68 67 68 68 68 68 68 69 69 69 70 70 70 71 72 72 72 72 73 73 74 74 74 75 75 75 75 75 76 76 75 75 74 74 73 73 72 72 72 72 72 72 72 72 72 72 72 72 72 72 73 74 75 76 78 79 80 81 81 81 81 81 80 80 80 79 78 76 75 74 74 74 74 74 74 74 74 74 75 75 75 76 76 76 76 76 74 73 72 72 71 70 70 69 66 65 64 63 63 -1 -1 -1 -1 -1 -1 -1 -1 -1 -1 -1 -1 -1 -1 -1 63 63 64 64 64 64 64 65 65 66 66 66 67 67 67 68 67 66 65 65 65 65 65 65 65 65 65 65 65 65 65 65 65 65 65 65 65 66 66 66 66 66 66 66 66 67 67
64 64 64 64 65 65 65 65 66 66 60 60 67 60 60 60 60 67 68 68 68 68 68 68 68 68 68 68 68 68 67 67 67 68 68 68 68 68 68 68 68 68 68 68 60 61 61 61 62 68 69 69 69 69 69 69 70 70 70 70 70 70 70 70 70 70 70 70 70 65 65 65 66 66 66 67 67 67 67 67 68 68 68 68 68 68 68 68 68 68 68 68 68 68 67 67 67 67 68 68 68 68 68 69 69 69 70 70 71 72 72 72 72 73 73 74 74 74 75 75 75 75 75 75 75 75 74 74 73 73 72 72 72 72 72 72 72 72 72 72 72 72 72 72 72 73 74 74 75 76 78 79 79 79 79 79 79 79 79 79 79 77 76 75 73 74 74 74 74 74 74 74 74 74 75 75 75 75 75 75 75 74 73 72 72 71 70 70 69 67 65 64 64 63 63 -1 -1 -1 -1 -1 -1 -1 -1 -1 -1 -1 -1 -1 -1 -1 63 64 64 64 64 65 65 65 66 66 67 67 68 68 69 68 67 66 65 65 65 65 65 65 65 65 65 65 65 65 65 65 65 65 65 66 66 66 66 66 66 66 66 67 67 67
64 64 64 64 65 65 65 65 65 66 60 60 67 67 60 60 67 68 68 68 68 68 68 68 68 68 68 68 68 68 68 68 68 68 68 68 68 68 68 68 68 68 68 68 68 60 61 61 68 68 69 69 69 69 69 69 69 69 69 70 70 70 70 70 70 70 70 70 70 69 65 66 66 66 66 67 67 67 67 67 67 67 67 67 67 67 67 67 67 67 67 67 67 67 67 67 67 67 67 68 68 68 68 69 69 69 70 70 71 71 72 72 72 73 73 74 74 74 74 75 75 75 75 75 75 75 74 74 73 73 72 72 72 72 72 72 72 72 72 72 72 72 72 72 72 72 73 73 74 75 75 76 77 77 77 77 77 77 77 77 77 76 75 74 73 73 73 74 74 74 74 74 74 74 74 74 75 75 75 74 74 74 73 72 72 71 71 70 69 68 66 65 64 64 63 63 63 -1 -1 -1 -1 -1 -1 -1 -1 -1 -1 -1 -1 -1 63 64 64 64 64 65 65 66 66 67 67 68 68 69 69 68 67 66 65 65 65 65 65 65 65 66 66 66 66 66 66 66 66 66 66 66 66 66 66 66 66 66 67 67 67 67
65 65 65 65 64 65 65 65 65 66 66 67 67 67 67 67 68 68 68 68 68 68 68 68 68 68 68 68 68 68 68 68 68 68 68 68 68 68 68 68 68 68 68 68 68 68 68 68 68 68 68 69 69 69 69 69 69 69 69 69 70 70 70 70 70 70 70 70 70 69 66 66 66 66 66 66 67 67 67 67 67 67 67 67 67 67 67 67 67 67 67 67 67 67 67 67 67 67 67 68 68 68 68 68 69 69 70 70 71 71 71 72 72 72 73 73 74 74 74 74 75 75 75 75 75 75 74 74 73 73 72 72 72 72 72 72 72 72 72 72 72 72 72 72 72 72 72 73 73 74 74 75 75 75 75 76 76 76 76 76 76 75 74 74 73 73 73 73 73 73 73 73 73 73 74 74 74 74 74 74 74 73 72 72 72 72 71 71 70 69 67 66 65 64 64 64 64 63 -1 -1 -1 -1 -1 -1 -1 -1 -1 -1 -1 -1 63 64 64 64 64 65 65 66 66 67 67 68 69 69 70 69 68 67 66 66 66 66 66 66 66 66 66 66 66 66 66 66 66 66 66 66 66 66 66 67 67 67 67 67 67 68
66 65 65 65 64 65 65 65 65 66 66 67 67 67 67 68 68 68 68 68 68 68 68 68 68 68 68 68 68 68 68 68 68 68 68 68 68 68 68 68 68 68 68 68 68 68 68 68 68 68 68 69 69 69 69 69 69 69 69 69 69 70 70 70 70 70 70 70 70 69 66 66 66 66 66 66 67 67 67 67 67 67 67 67 67 67 67 67 67 67 67 67 67 67 67 67 67 67 67 68 68 68 68 68 69 69 70 70 70 71 71 71 72 72 73 73 74 74 74 74 75 75 75 75 75 75 74 74 73 73 72 72 72 72 72 72 72 72 72 72 72 72 72 72 72 72 72 72 73 73 73 74 74 74 74 74 74 74 74 75 75 74 74 73 73 73 73 73 73 73 73 73 73 73 73 73 74 74 74 73 73 73 72 72 72 72 71 71 71 70 69 68 67 66 65 65 64 64 63 -1 -1 -1 -1 -1 -1 -1 -1 -1 -1 -1 63 64 64 64 64 65 65 66 66 67 68 68 69 69 70 69 68 67 66 66 66 66 66 66 66 66 66 66 66 66 66 66 66 66 66 66 66 67 67 67 67 67 67 67 68 68
66 66 65 65 64 64 65 65 65 65 66 67 67 67 67 68 68 68 68 68 68 68 68 68 68 68 68 68 68 68 68 68 68 68 68 68 68 68 68 68 69 68 68 68 68 68 68 68 68 68 68 69 69 69 69 69 69 69 69 66 66 66 66 66 70 70 70 70 70 69 68 66 66 66 66 66 66 67 67 67 67 67 67 67 67 67 67 67 67 67 67 67 67 67 67 67 67 67 67 68 68 68 68 68 69 69 69 70 70 70 71 71 72 72 72 73 74 74 74 74 75 75 75 75 75 75 74 74 73 73 72 72 72 72 72 72 72 72 72 72 72 72 72 72 72 72 72 72 72 72 73 73 73 73 73 73 73 74 74 74 74 73 73 73 73 73 73 73 73 73 72 72 72 72 73 73 73 73 73 73 73 72 72 72 72 72 72 71 71 71 70 70 69 68 67 67 66 64 64 63 -1 -1 -1 -1 -1 -1 -1 -1 -1 -1 63 64 64 64 64 65 65 66 67 67 68 69 69 70 70 69 68 67 67 66 66 66 66 66 67 67 67 67 67 67 67 67 67 67 67 67 67 67 67 67 67 67 67 68 68 68
66 65 65 64 64 64 64 64 64 65 66 67 67 67 67 68 68 68 68 68 68 68 68 68 68 68 68 68 68 68 68 68 68 68 68 68 68 68 68 69 69 69 68 68 68 68 68 68 68 68 68 69 69 69 69 69 68 67 66 66 66 66 66 65 65 70 70 69 69 68 67 67 66 66 66 66 66 67 67 67 67 67 67 67 67 67 67 67 67 67 67 67 67 67 67 67 67 67 67 67 68 68 68 68 68 69 69 70 70 70 71 71 71 72 72 72 73 73 74 74 74 74 74 74 74 74 74 73 73 72 72 72 72 72 72 72 72 72 72 72 72 72 72 72 72 72 72 72 72 72 72 73 73 73 73 73 73 73 73 73 73 73 73 73 73 73 73 73 73 73 72 72 72 72 72 73 73 73 73 72 72 72 72 72 72 72 72 72 72 71 71 71 70 69 68 67 67 65 64 63 63 -1 -1 -1 -1 -1 -1 -1 -1 -1 63 64 64 64 64 65 65 66 67 68 69 69 69 69 70 69 68 67 67 67 67 67 67 67 67 67 67 67 67 67 67 67 67 67 67 67 67 67 67 67 67 68 68 68 68 68
65 65 64 64 64 64 64 64 64 65 66 66 67 67 67 68 68 68 68 68 68 68 68 68 68 68 68 68 68 68 68 68 68 68 68 68 68 68 69 69 69 69 69 68 68 68 68 68 68 68 68 68 68 68 68 67 67 67 66 66 66 66 66 70 70 65 65 69 69 68 67 66 66 66 66 66 66 66 67 62 61 67 67 67 67 67 67 67 67 67 67 67 67 67 67 67 67 67 67 67 67 68 68 68 68 69 69 69 70 70 70 71 71 72 72 72 73 73 73 73 73 73 74 74 74 73 73 73 72 72 72 72 72 72 72 72 72 72 72 72 71 72 72 72 72 72 72 72 72 72 72 72 72 73 73 73 73 73 73 73 73 73 73 73 73 73 73 73 73 72 72 72 72 72 72 72 72 72 72 72 72 72 72 72 72 72 72 72 72 72 72 71 71 70 69 68 67 66 64 64 63 63 63 -1 -1 -1 -1 -1 -1 -1 63 64 64 64 64 65 65 66 67 68 69 69 69 69 69 69 68 67 67 67 67 67 67 67 67 67 67 67 67 67 67 67 67 67 67 67 67 67 68 68 68 68 68 68 68 68
65 64 64 64 64 64 64 64 64 65 65 66 67 67 67 68 68 68 68 68 68 68 68 68 68 68 68 68 68 68 68 68 68 68 68 68 69 69 69 69 69 69 69 69 69 69 68 68 68 68 68 68 68 68 67 67 67 67 66 66 66 69 69 65 70 65 65 65 68 67 62 62 62 66 66 66 65 63 62 62 61 61 61 67 67 67 67 67 67 67 67 67 67 67 67 67 67 67 67 67 67 68 68 68 68 69 69 69 70 70 70 71 71 71 72 72 72 73 73 73 73 73 73 73 73 73 73 72 72 72 72 72 72 72 72 72 72 72 72 71 71 71 72 72 72 72 72 72 72 72 72 72 72 73 73 73 73 73 73 73 73 73 73 73 73 73 73 73 73 72 72 72 72 72 72 72 72 72 72 72 72 72 72 72 72 73 73 73 73 73 72 72 72 71 70 69 68 67 66 65 64 64 63 63 -1 -1 -1 -1 -1 63 63 64 64 64 64 65 65 66 67 68 69 69 69 69 69 68 68 68 67 67 67 67 67 67 67 67 67 67 67 67 67 67 67 67 67 68 68 68 68 68 68 68 68 68 69 69
64 64 64 64 64 64 64 64 64 64 65 66 67 67 68 68 68 68 68 68 68 68 68 68 69 69 68 68 68 68 68 68 68 68 68 69 69 69 69 69 69 69 69 69 69 69 69 69 69 69 68 68 68 68 67 67 67 67 67 69 69 69 69 69 70 65 65 65 67 66 63 62 62 66 64 64 63 63 62 62 62 61 61 62 66 66 66 66 66 67 67 67 67 67 67 67 67 67 67 67 67 67 68 68 68 68 69 69 69 70 70 70 71 71 72 72 72 72 72 72 72 73 73 73 73 73 72 72 72 72 72 72 72 72 72 72 72 72 72 71 71 71 72 72 72 72 72 72 72 72 72 72 72 72 73 73 73 73 73 73 73 73 73 73 73 73 73 73 73 72 72 72 72 72 72 72 72 72 72 72 72 72 72 72 73 73 73 74 74 74 73 73 72 72 71 70 69 68 67 66 65 64 64 63 -1 -1 -1 -1 -1 63 63 64 64 64 64 65 65 66 67 68 69 69 69 68 68 68 68 68 67 67 67 68 68 68 68 68 68 68 68 68 68 68 68 68 68 68 68 68 68 68 68 68 68 69 69 69
64 64 64 64 64 64 64 64 64 64 65 66 66 67 67 67 68 68 68 68 68 68 68 69 69 69 69 69 69 69 69 68 68 68 69 69 69 69 69 69 69 -1 -1 -1 -1 69 69 69 69 69 69 69 69 68 69 68 69 69 69 69 69 69 69 69 65 65 65 65 66 66 65 65 64 64 63 63 63 63 62 62 62 62 62 66 66 66 66 66 66 67 67 67 67 67 67 67 67 67 67 67 67 68 68 68 68 69 69 69 70 70 70 70 71 71 71 72 72 72 72 72 72 72 72 72 72 72 72 72 72 72 72 72 72 72 72 72 72 72 71 71 71 71 71 72 72 72 72 72 72 72 72 72 72 72 72 73 73 73 73 73 73 73 73 73 73 73 73 72 72 72 72 72 72 72 72 72 72 72 72 72 72 72 72 72 73 73 73 74 74 74 73 73 73 72 71 70 69 68 67 66 66 64 64 63 -1 -1 -1 -1 -1 63 63 64 64 64 64 65 65 66 67 68 69 69 69 68 68 68 68 68 68 68 68 68 68 68 68 68 68 68 68 68 68 68 68 68 68 68 68 68 68 69 69 69 69 69 69 69
64 64 64 64 64 64 64 64 64 64 64 65 65 66 66 67 67 68 68 68 69 69 69 69 69 69 69 69 69 69 69 69 69 69 69 69 69 69 69 69 -1 -1 -1 -1 -1 -1 69 69 69 69 69 69 69 69 69 69 69 69 69 69 69 68 68 65 65 65 65 65 65 64 64 64 63 63 63 63 63 63 63 63 63 63 66 66 66 66 66 66 66 67 67 67 67 67 67 67 67 67 67 67 67 68 68 68 68 69 69 69 70 70 70 70 71 71 71 72 72 72 72 72 72 72 72 72 72 72 72 72 72 72 72 72 72 72 72 72 72 72 71 71 71 71 71 71 72 72 72 72 72 72 72 72 72 72 72 72 73 73 73 73 73 73 73 73 73 73 72 72 72 72 72 72 72 72 72 72 72 72 72 72 72 72 72 72 72 73 73 73 74 74 73 73 73 72 71 71 70 69 68 67 66 65 64 63 63 63 63 -1 -1 63 63 64 64 64 64 65 65 66 67 68 69 69 69 68 68 68 68 68 68 68 68 68 68 68 68 68 68 68 68 68 68 68 68 68 68 68 69 69 69 69 69 69 69 69 69 69
64 64 64 64 64 64 64 64 64 64 64 64 65 65 66 67 67 68 68 68 69 69 69 69 69 69 69 69 69 69 69 69 69 69 69 69 69 -1 -1 -1 -1 -1 -1 -1 -1 -1 67 69 69 68 68 68 68 68 68 68 68 68 68 68 68 68 68 65 65 64 64 64 64 64 64 64 63 63 63 63 63 63 63 63 64 66 66 66 66 66 66 66 66 67 67 67 67 67 67 67 67 67 67 67 67 68 68 68 69 69 69 70 70 70 70 71 71 71 71 71 72 72 72 72 72 72 72 72 72 72 72 72 72 72 72 72 72 72 72 72 72 72 71 71 71 71 71 71 71 71 72 72 72 72 72 72 72 72 72 72 72 72 73 73 73 73 73 73 73 72 72 72 72 72 72 72 72 72 72 72 72 72 72 72 72 72 72 72 72 73 73 73 74 73 73 73 73 72 72 71 70 69 68 67 67 65 64 64 63 63 63 63 63 63 64 64 64 64 65 65 65 67 67 68 69 69 69 68 68 68 68 68 68 68 68 68 68 68 69 69 69 69 69 69 69 69 69 69 69 69 69 69 69 69 69 69 69 69 70 70
64 64 64 64 64 64 64 64 64 64 64 64 60 60 65 66 67 67 68 68 69 69 69 69 69 69 69 69 69 69 69 69 69 69 69 69 69 -1 -1 -1 -1 -1 -1 -1 -1 -1 67 68 69 68 68 68 68 68 68 68 68 68 68 68 68 68 67 67 65 64 64 64 64 63 63 63 63 63 63 63 63 63 64 66 66 66 66 66 66 66 66 66 66 66 67 67 67 67 67 67 67 67 67 67 67 68 68 68 69 69 69 70 70 70 70 71 71 71 71 71 71 71 72 72 72 72 72 72 72 72 72 72 72 72 72 72 72 72 72 72 72 71 71 71 71 71 71 71 71 71 71 72 72 72 72 72 72 72 72 72 72 72 72 72 73 73 73 73 73 72 72 72 72 72 72 72 72 72 72 72 72 72 72 72 72 72 72 72 72 72 73 73 73 73 73 73 73 72 72 71 71 69 69 68 67 65 64 64 63 63 63 63 63 63 64 64 64 64 65 65 65 67 68 68 69 69 69 68 68 68 68 68 68 69 69 69 69 69 69 69 69 69 69 69 69 69 69 69 69 69 69 69 69 69 69 70 70 70 70 70
64 64 64 64 64 64 64 64 64 64 64 60 60 65 65 66 67 67 68 68 69 69 69 69 69 69 69 69 69 69 69 69 69 69 69 69 -1 -1 -1 -1 -1 -1 -1 -1 -1 67 67 68 68 68 68 68 68 68 68 68 68 68 68 68 68 68 67 67 65 64 64 64 64 63 63 63 63 63 63 64 65 65 65 66 66 66 66 66 66 66 66 66 66 67 67 67 67 67 67 67 67 67 67 67 67 68 68 68 69 69 69 70 70 70 70 71 71 71 71 71 71 71 71 72 72 72 72 72 72 72 72 72 72 72 71 71 71 71 71 71 71 71 71 71 71 71 71 71 71 71 71 71 72 72 72 72 72 72 72 72 72 72 72 72 73 72 72 72 72 72 72 72 72 72 72 72 72 72 72 72 72 72 72 72 72 72 72 72 72 72 72 73 73 73 73 73 73 72 72 71 70 69 68 68 67 65 64 64 63 63 63 63 63 63 64 64 65 65 66 66 66 67 68 68 69 69 69 68 68 68 68 69 69 69 69 69 69 69 69 69 69 69 69 69 69 69 69 69 69 69 69 69 70 70 70 70 70 70 70 70
64 64 64 64 64 64 64 64 64 64 64 59 60 65 65 66 67 67 68 68 69 69 69 69 69 69 69 69 69 69 69 69 69 69 69 69 -1 -1 -1 -1 -1 -1 -1 -1 -1 67 67 68 68 68 68 68 68 68 68 68 68 68 68 68 68 68 68 67 67 65 64 64 64 63 63 63 63 63 64 64 65 65 65 66 66 66 66 66 66 66 66 66 67 67 67 67 67 67 67 67 67 67 67 67 68 68 68 69 69 69 70 70 70 70 70 71 71 71 71 71 71 71 71 72 72 72 72 72 72 72 72 72 71 71 71 71 71 71 71 71 71 71 71 71 71 71 71 71 71 71 71 71 71 72 72 72 72 72 72 72 72 72 72 72 72 72 72 72 72 72 72 72 72 72 72 72 72 72 72 72 72 72 72 72 71 72 72 72 72 72 72 72 73 73 73 72 72 72 72 71 70 69 68 68 67 65 64 64 63 63 63 63 63 64 64 64 66 66 67 67 68 68 68 69 69 69 69 69 68 68 69 69 69 69 69 69 69 69 69 70 70 70 70 70 69 69 69 69 69 70 70 70 70 70 70 70 70 70 70 71
64 64 64 64 64 64 64 64 64 64 64 64 64 65 65 66 66 67 68 68 69 69 69 69 69 69 69 69 69 69 69 69 69 69 69 69 69 -1 -1 -1 -1 -1 -1 -1 67 67 68 68 68 68 68 68 68 68 68 68 68 68 68 68 68 68 68 68 67 67 65 64 64 63 63 63 63 63 64 65 65 66 66 66 66 66 66 66 66 66 66 67 67 67 67 67 68 67 67 67 67 67 68 68 68 68 68 69 69 69 70 70 70 70 70 71 71 71 71 71 71 71 71 71 72 72 72 72 72 72 71 71 71 71 71 71 71 71 71 71 71 71 71 71 71 71 71 71 71 71 71 71 71 72 72 72 72 72 72 72 72 72 72 72 72 72 72 72 72 72 72 72 72 72 72 72 72 72 72 72 71 71 71 71 71 71 72 72 72 72 72 72 72 72 72 72 72 72 72 71 70 69 68 68 67 65 64 64 63 63 63 63 63 64 64 65 66 67 68 68 69 69 69 69 69 69 69 69 68 69 69 69 69 69 69 69 70 70 70 70 70 70 70 70 70 70 70 70 70 70 70 70 70 70 70 70 71 71 71 71
63 63 63 64 64 64 64 64 64 64 64 64 64 65 65 66 66 67 68 68 69 69 69 69 69 69 69 69 69 69 69 69 69 69 69 69 69 -1 -1 -1 67 68 68 68 68 68 68 68 68 68 68 68 68 68 68 68 68 68 68 68 68 68 68 68 68 67 66 65 64 64 63 63 64 64 65 65 66 66 66 66 66 66 66 66 66 66 66 67 67 67 67 68 68 68 68 68 68 68 68 68 68 68 68 69 69 69 70 70 70 70 70 71 71 71 71 71 71 71 71 71 72 72 71 71 71 71 71 71 71 71 71 71 71 71 71 71 71 71 71 71 71 71 71 71 71 71 71 71 71 71 72 72 72 72 72 72 72 72 72 72 72 72 72 72 72 72 72 72 72 72 72 72 72 72 72 71 71 71 71 71 71 71 71 72 72 72 72 72 72 72 72 72 72 72 71 71 70 69 68 67 67 65 64 64 64 64 64 64 63 64 65 66 67 68 69 70 71 70 70 69 69 69 69 69 69 69 69 69 69 69 69 70 70 70 70 70 70 70 70 70 70 70 70 70 70 70 70 70 70 71 71 71 71 71 71 71
64 64 64 64 64 64 64 64 64 64 64 64 64 65 65 66 66 67 67 68 69 69 69 69 69 69 69 69 69 69 69 69 69 69 69 69 69 67 67 67 68 68 68 68 68 68 68 68 68 68 68 68 68 68 68 67 67 67 68 68 68 68 68 68 68 67 66 65 64 64 64 64 65 65 65 65 66 66 66 66 67 67 67 67 67 67 67 67 67 68 68 68 68 68 68 68 68 68 68 68 68 68 68 69 69 69 70 70 70 70 70 71 71 71 71 71 71 71 71 71 71 71 71 71 71 71 71 71 71 71 71 71 71 71 71 71 71 71 71 71 71 71 71 71 71 71 71 71 71 71 72 72 72 72 72 72 72 72 72 72 72 72 72 72 72 72 72 72 72 72 72 72 72 72 72 71 71 71 71 71 71 71 71 71 71 72 72 72 72 72 72 72 72 72 71 71 70 69 68 67 66 65 64 64 63 63 63 63 63 64 64 66 67 68 69 70 71 71 70 70 70 70 69 69 69 69 69 69 69 69 70 70 70 70 70 70 70 70 70 70 70 70 70 70 70 70 71 71 71 71 71 71 71 71 71 71
64 64 64 64 64 64 64 64 64 64 64 64 64 65 65 65 66 67 67 68 69 69 69 69 69 69 69 69 69 69 69 69 69 69 69 69 68 68 68 68 68 68 68 68 68 68 68 68 68 68 68 68 67 67 67 67 67 67 67 67 68 68 68 68 68 67 67 66 64 64 64 64 65 65 65 65 66 66 66 67 67 67 67 68 68 68 68 68 68 68 68 68 69 69 69 69 69 69 69 69 68 68 68 69 69 69 70 70 70 70 70 70 71 71 71 71 71 71 71 71 71 71 71 71 71 71 71 71 71 71 71 71 71 71 71 71 71 71 71 71 71 71 71 71 71 71 71 71 71 71 72 72 72 72 72 72 72 72 72 72 72 72 72 72 72 72 72 72 72 72 72 72 72 72 71 71 71 71 71 71 71 71 71 71 71 71 72 72 72 72 72 72 72 71 71 71 70 69 68 67 66 65 64 64 63 63 63 63 63 64 64 66 67 68 69 70 71 71 71 71 71 70 70 70 69 69 69 69 69 69 70 70 70 70 70 70 71 71 71 70 70 70 70 70 70 71 71 71 71 71 71 72 72 72 72 72
64 64 64 64 64 64 64 64 64 64 64 64 64 65 65 65 66 66 67 68 69 69 69 69 69 69 69 69 69 69 69 69 69 69 69 69 68 68 68 68 68 68 68 68 68 68 68 68 68 68 68 67 67 67 67 67 67 67 67 67 68 68 68 68 68 67 67 66 64 64 64 64 65 65 65 65 66 66 67 67 68 68 68 68 69 69 69 69 69 69 69 69 69 69 69 69 69 69 69 69 69 69 69 69 69 69 70 70 70 70 70 70 70 71 71 71 71 71 71 71 71 71 71 71 71 71 71 71 71 71 71 71 71 71 71 71 71 71 71 71 71 71 71 71 71 71 71 71 71 71 71 72 72 72 72 72 72 72 72 72 72 72 72 72 72 72 72 72 72 72 72 72 72 72 71 71 71 71 71 71 71 71 71 71 71 71 71 72 72 72 72 72 72 71 71 70 70 69 68 67 66 65 64 64 63 63 63 63 63 64 64 65 67 68 69 70 71 72 72 72 72 71 70 70 70 70 69 69 69 70 70 70 70 70 70 71 71 71 71 71 71 71 71 70 70 71 71 71 72 72 72 72 72 72 72 72
