-1 -1 -1 -1 -1 -1 -1 -1 -1 -1 -1 -1 -1 -1 -1 -1 -1 -1 -1 -1 -1 -1 -1 -1 -1 -1 -1 -1 -1 -1 -1 -1 -1 -1 -1 -1 -1 -1 -1 -1 -1 -1 -1 -1 -1 -1 -1 63 64 64 65 66 67 68 69 70 71 72 73 76 79 84 93 96 99 102 106 109 112 115 118 117 116 115 114 108 106 103 100 99 98 98 97 96 96 96 95 95 95 95 94 94 93 92 91 91 91 91 91 91 91 91 91 90 89 88 86 85 84 83 82 80 78 76 74 74 73 73 73 73 73 73 73 73 73 73 73 73 74 74 75 76 76 77 77 77 78 78 79 79 80 80 80 80 80 80 80 80 80 79 79 79 78 78 78 77 77 76 76 76 76 75 75 75 75 74 74 74 73 73 73 73 73 73 73 73 72 72 72 69 69 70 71 72 72 72 72 72 72 73 73 73 72 72 72 72 71 70 70 70 70 70 70 70 70 70 70 70 70 70 70 69 69 69 68 68 68 68 68 68 68 68 68 66 66 65 65 65 65 64 59 59 62 62 69 69 68 66 66 64 65 65 67 68 69 70 72 72 72 72 72 72 71 71 71 71
-1 -1 -1 -1 -1 -1 -1 -1 -1 -1 -1 -1 -1 -1 -1 -1 -1 -1 -1 -1 -1 -1 -1 -1 -1 -1 -1 -1 -1 -1 -1 -1 -1 -1 -1 -1 -1 -1 -1 -1 -1 -1 -1 -1 -1 -1 -1 63 63 64 64 65 66 67 68 69 70 71 72 75 78 83 92 95 98 101 105 107 110 113 116 116 115 114 113 108 105 102 99 98 98 97 97 96 96 96 95 95 95 95 94 94 93 92 92 91 91 91 91 91 91 90 90 90 89 88 86 85 84 82 81 79 77 75 74 73 73 73 72 72 72 72 72 72 73 73 73 73 74 74 75 76 76 77 77 77 78 78 79 79 79 80 80 80 80 80 80 80 80 79 79 79 78 78 78 77 77 76 76 76 76 75 75 75 75 74 74 74 74 73 73 73 73 73 73 73 72 72 72 72 72 72 73 72 72 72 72 73 74 74 75 75 74 73 73 72 71 71 70 70 70 70 70 70 70 70 70 70 70 70 70 69 69 69 69 69 68 68 68 68 68 68 68 67 67 67 67 67 66 64 59 59 62 61 69 68 68 68 67 65 65 65 65 68 69 71 72 72 72 72 72 72 72 68 71 72
-1 -1 -1 -1 -1 -1 -1 -1 -1 -1 -1 -1 -1 -1 -1 -1 -1 -1 -1 -1 -1 -1 -1 -1 -1 -1 -1 -1 -1 -1 -1 -1 -1 -1 -1 -1 -1 -1 -1 -1 -1 -1 -1 -1 -1 -1 -1 -1 63 64 64 65 65 66 67 68 69 70 71 74 77 81 90 93 96 100 103 105 108 111 115 114 114 113 113 107 104 101 99 98 98 97 97 96 96 96 95 95 95 95 94 94 93 92 92 91 91 91 91 91 90 90 90 89 89 87 86 85 83 82 81 79 77 75 73 73 73 72 72 72 72 72 72 72 72 73 73 73 74 74 75 76 76 77 77 77 78 78 79 79 79 79 80 80 80 80 80 80 79 79 79 79 78 78 78 77 77 77 76 76 76 75 75 75 75 74 74 74 74 73 73 73 73 73 73 73 73 73 72 72 73 73 73 73 73 73 73 74 75 76 77 77 76 73 73 72 72 71 70 70 70 70 70 70 70 70 70 70 70 70 69 69 69 69 69 69 68 68 68 68 68 68 68 68 67 67 67 67 66 66 58 59 60 60 68 68 67 67 67 67 65 65 65 66 69 71 72 72 72 72 72 72 72 72 68 72
-1 -1 -1 -1 -1 -1 -1 -1 -1 -1 -1 -1 -1 -1 -1 -1 -1 -1 -1 -1 -1 -1 -1 -1 -1 -1 -1 -1 -1 -1 -1 -1 -1 -1 -1 -1 -1 -1 -1 -1 -1 -1 -1 -1 -1 -1 -1 -1 63 63 64 64 65 66 66 67 68 69 70 73 76 80 89 92 93 99 102 104 106 110 113 113 113 112 112 107 103 101 98 98 97 97 97 96 96 95 95 95 95 95 94 94 93 92 92 91 91 91 91 90 90 90 90 89 88 87 86 85 83 82 80 78 76 75 73 73 72 72 72 72 72 72 72 72 72 73 73 73 74 74 75 76 76 77 77 77 78 78 79 79 79 79 79 79 79 80 80 79 79 79 79 79 78 78 78 77 77 77 76 76 76 75 75 75 75 74 74 74 74 74 73 71 71 71 70 70 70 71 71 71 71 71 72 72 72 73 73 74 76 78 79 79 78 73 73 73 72 72 71 71 70 70 70 70 70 70 70 70 70 70 69 69 69 69 69 69 68 68 68 68 68 68 68 68 67 67 67 67 66 66 58 58 60 59 68 67 67 66 66 66 67 66 66 66 70 71 72 72 72 72 72 72 72 72 72 72
-1 -1 -1 -1 -1 -1 -1 -1 -1 -1 -1 -1 -1 -1 -1 -1 -1 -1 -1 -1 -1 -1 -1 -1 -1 -1 -1 -1 -1 -1 -1 -1 -1 -1 -1 -1 -1 -1 -1 -1 -1 -1 -1 -1 -1 -1 -1 -1 -1 63 64 64 64 65 66 66 67 68 69 72 75 79 87 90 93 97 101 103 105 108 111 111 111 111 111 106 103 100 98 97 97 97 97 96 96 95 95 95 95 94 94 94 93 92 92 91 91 91 91 90 90 90 90 89 88 87 86 85 83 81 80 78 76 74 73 72 72 72 72 72 72 72 72 72 72 72 73 73 74 74 75 76 76 77 77 77 78 78 79 79 79 79 79 79 79 79 79 79 79 79 79 79 79 78 78 77 77 77 76 76 76 75 75 75 75 75 74 72 71 70 70 70 70 70 70 70 70 70 71 71 71 71 71 72 72 72 72 72 78 80 84 81 80 79 72 73 73 72 71 71 71 70 70 70 70 70 70 70 70 69 69 69 69 69 69 69 69 68 68 68 68 68 68 68 67 67 67 67 66 66 66 58 59 67 68 67 66 65 64 66 66 66 66 66 70 71 72 72 72 72 72 72 72 68 72 72
-1 -1 -1 -1 -1 -1 -1 -1 -1 -1 -1 -1 -1 -1 -1 -1 -1 -1 -1 -1 -1 -1 -1 -1 -1 -1 -1 -1 -1 -1 -1 -1 -1 -1 -1 -1 -1 -1 -1 -1 -1 -1 -1 -1 -1 -1 -1 -1 -1 -1 63 63 64 64 65 65 66 67 68 71 73 77 86 89 92 93 100 102 104 106 110 109 108 108 107 104 102 100 98 98 97 97 97 96 96 95 95 95 94 94 94 93 93 92 92 91 91 91 90 90 90 89 89 88 87 86 85 83 81 80 78 77 75 73 72 72 72 72 72 72 72 72 72 72 72 72 73 73 74 74 75 75 76 76 77 77 78 78 78 78 78 79 79 79 79 79 79 79 79 79 79 79 78 78 78 77 77 77 76 76 76 75 75 75 75 75 75 70 70 70 70 70 70 70 70 70 70 70 70 71 71 71 71 72 72 72 72 79 80 83 87 85 83 81 80 72 73 73 72 71 71 71 70 70 70 70 70 70 70 70 70 70 69 69 69 69 69 69 68 68 68 68 68 67 67 67 67 67 66 66 66 66 59 58 67 66 65 65 65 65 66 67 66 69 70 71 72 72 72 72 72 72 69 69 69 72
-1 -1 -1 -1 -1 -1 -1 -1 -1 -1 -1 -1 -1 -1 -1 -1 -1 -1 -1 -1 -1 -1 -1 -1 -1 -1 -1 -1 -1 -1 -1 -1 -1 -1 -1 -1 -1 -1 -1 -1 -1 -1 -1 -1 -1 -1 -1 -1 -1 -1 -1 63 63 64 64 65 65 66 -1 -1 -1 -1 -1 -1 -1 -1 99 100 102 104 108 107 106 104 104 99 99 100 99 98 98 97 97 96 96 95 95 94 94 94 94 93 93 92 92 91 91 90 90 89 89 89 88 87 86 85 84 82 80 79 77 75 74 73 72 72 72 72 72 72 72 72 72 72 72 72 73 73 74 74 75 75 76 76 77 77 77 77 78 78 78 78 78 78 79 79 79 79 79 79 79 78 78 78 78 77 77 76 76 76 76 75 75 75 75 70 70 70 70 70 70 70 70 70 70 70 70 70 70 71 71 71 71 72 79 79 80 82 84 87 89 88 87 85 83 79 72 74 72 72 72 71 71 71 71 71 70 70 70 70 70 70 70 69 69 69 69 69 68 68 68 68 68 67 67 67 67 66 66 66 65 66 66 66 66 66 65 65 65 65 66 67 67 69 70 71 72 72 72 72 72 72 69 69 69 72
-1 -1 -1 -1 -1 -1 -1 -1 -1 -1 -1 -1 -1 -1 -1 -1 -1 -1 -1 -1 -1 -1 -1 -1 -1 -1 -1 -1 -1 -1 -1 -1 -1 -1 -1 -1 -1 -1 -1 -1 -1 -1 -1 -1 -1 -1 -1 -1 -1 -1 -1 -1 -1 63 63 64 65 65 -1 -1 -1 -1 -1 -1 -1 93 98 99 101 103 106 104 103 98 97 97 97 98 99 98 98 97 97 96 96 95 94 94 94 94 94 93 93 92 91 91 90 90 89 89 89 88 88 86 85 84 83 81 79 77 75 74 73 72 72 72 72 72 71 71 71 72 72 72 72 72 72 73 73 74 74 75 75 76 76 77 77 77 77 78 78 78 78 78 78 78 78 78 78 78 79 78 78 78 77 77 77 76 76 76 76 76 75 75 71 70 70 70 70 70 70 70 70 70 70 70 70 70 71 71 71 71 79 80 81 83 85 87 88 89 90 90 89 89 88 80 78 76 72 72 72 72 71 71 71 71 71 71 71 70 70 70 70 70 69 69 69 69 69 68 68 68 68 67 67 67 67 66 66 66 65 65 66 66 66 65 65 65 65 65 66 67 67 69 70 71 72 72 72 72 72 72 69 68 68 72
-1 -1 -1 -1 -1 -1 -1 -1 -1 -1 -1 -1 -1 -1 -1 -1 -1 -1 -1 -1 -1 -1 -1 -1 -1 -1 -1 -1 -1 -1 -1 -1 -1 -1 -1 -1 -1 -1 -1 -1 -1 -1 -1 -1 -1 -1 -1 -1 -1 -1 -1 -1 -1 -1 -1 63 64 65 -1 -1 -1 -1 -1 -1 -1 -1 97 98 100 102 104 103 102 97 97 97 97 97 98 99 98 98 97 96 96 95 94 94 94 94 93 93 92 92 91 91 90 89 89 88 88 87 87 86 85 84 83 80 78 76 74 73 72 72 72 72 71 71 71 71 71 71 71 72 72 72 72 73 73 74 74 75 75 76 76 76 76 77 77 77 77 78 78 78 78 78 78 78 78 78 78 78 78 78 77 77 76 76 76 76 76 76 76 76 76 70 70 70 70 70 70 70 70 70 70 70 70 71 71 71 77 79 81 84 87 89 90 91 91 91 92 91 91 90 90 84 79 77 73 73 72 72 72 72 71 71 71 71 71 71 71 70 70 70 69 69 69 69 69 68 68 68 68 67 67 67 66 66 66 66 65 65 65 65 65 65 65 65 65 65 66 66 67 69 70 71 72 72 72 72 72 72 72 68 68 72
-1 -1 -1 -1 -1 -1 -1 -1 -1 -1 -1 -1 -1 -1 -1 -1 -1 -1 -1 -1 -1 -1 -1 -1 -1 -1 -1 -1 -1 -1 -1 -1 -1 -1 -1 -1 -1 -1 -1 -1 -1 -1 -1 -1 -1 -1 -1 -1 -1 -1 -1 -1 -1 -1 -1 63 64 64 -1 -1 -1 -1 -1 -1 -1 -1 -1 96 98 100 102 98 97 96 96 96 97 97 97 98 98 98 97 96 95 95 94 94 93 93 92 92 91 91 90 89 89 88 88 87 87 86 86 84 83 82 80 79 77 75 73 73 72 72 72 71 71 71 71 71 71 71 71 72 72 72 72 73 73 73 74 74 75 75 75 76 76 76 76 76 77 77 77 77 77 78 78 78 78 78 78 78 78 77 77 77 77 76 76 76 76 76 76 76 76 70 70 70 70 70 70 75 70 70 71 75 75 75 75 77 78 80 83 86 89 90 91 92 92 93 93 92 92 91 91 88 81 79 77 76 75 74 73 73 72 72 71 71 71 71 71 71 70 70 70 69 69 69 69 69 68 68 68 67 67 67 66 66 66 66 65 65 65 65 65 65 65 65 65 65 65 66 66 67 66 70 70 70 70 70 70 70 68 68 68 69
-1 -1 -1 -1 -1 -1 -1 -1 -1 -1 -1 -1 -1 -1 -1 -1 -1 -1 -1 -1 -1 -1 -1 -1 -1 -1 -1 -1 -1 -1 -1 -1 -1 -1 -1 -1 -1 -1 -1 -1 -1 -1 -1 -1 -1 -1 -1 -1 -1 -1 -1 -1 -1 -1 -1 63 64 64 -1 -1 -1 -1 -1 -1 -1 -1 92 94 96 98 100 97 96 96 96 96 96 97 97 98 98 97 97 96 95 94 93 93 92 92 91 91 90 89 89 88 88 87 87 86 86 85 85 83 82 80 79 77 76 74 73 72 72 72 71 71 71 71 71 71 71 71 71 72 72 72 71 73 73 73 74 74 74 75 75 75 75 75 76 76 76 76 76 76 77 77 77 78 78 78 78 78 77 77 77 77 77 76 76 76 76 76 76 76 76 70 70 70 76 75 75 75 75 75 75 75 75 75 76 77 79 80 85 87 89 91 92 93 93 94 95 94 93 92 92 90 86 82 80 79 75 75 75 75 74 72 72 72 72 71 71 71 71 70 70 70 69 69 69 69 68 68 68 67 67 67 66 66 66 66 65 65 65 65 65 65 65 65 65 65 65 65 65 66 67 66 67 69 69 69 68 69 69 68 68 69
-1 -1 -1 -1 -1 -1 -1 -1 -1 -1 -1 -1 -1 -1 -1 -1 -1 -1 -1 -1 -1 -1 -1 -1 -1 -1 -1 -1 -1 -1 -1 -1 -1 -1 -1 -1 -1 -1 -1 -1 -1 -1 -1 -1 -1 -1 -1 -1 -1 -1 -1 -1 -1 -1 -1 63 64 64 -1 -1 -1 -1 -1 -1 -1 -1 90 92 94 95 97 96 96 96 96 96 96 97 97 98 98 97 97 96 95 94 93 92 91 91 90 89 88 88 88 87 87 86 86 85 85 84 84 82 80 79 77 76 75 74 72 72 72 72 71 71 71 71 71 71 71 71 71 72 72 71 -1 -1 -1 73 73 74 74 74 75 75 75 75 75 75 75 75 75 76 76 77 77 77 77 77 78 77 77 77 77 77 77 76 76 76 77 77 77 77 77 77 77 70 76 76 76 75 75 75 75 75 75 76 76 77 79 81 86 89 90 91 93 94 94 95 96 95 94 93 93 91 90 88 84 81 80 79 75 77 75 73 72 72 72 72 71 71 71 70 70 70 69 69 69 69 68 68 68 67 67 67 67 66 66 66 65 65 65 65 65 65 65 65 65 65 65 64 64 65 66 66 67 67 67 67 67 68 68 68 68 69
-1 -1 -1 -1 -1 -1 -1 -1 -1 -1 -1 -1 -1 -1 -1 -1 -1 -1 -1 -1 -1 -1 -1 -1 -1 -1 -1 -1 -1 -1 -1 -1 -1 -1 -1 -1 -1 -1 -1 -1 -1 -1 -1 -1 -1 -1 -1 -1 -1 -1 -1 -1 -1 -1 -1 -1 -1 -1 -1 -1 -1 -1 -1 -1 -1 -1 88 90 92 93 95 95 95 95 96 96 96 97 97 97 97 97 97 96 95 94 92 91 90 89 88 88 87 87 87 86 86 85 85 84 84 84 84 81 80 78 75 74 74 73 72 72 72 71 71 71 71 71 71 71 71 71 72 72 72 71 -1 -1 -1 73 73 73 74 74 74 74 74 74 74 74 74 74 74 75 76 76 77 77 77 77 77 77 77 77 77 77 77 77 77 77 77 77 77 77 77 77 77 77 77 76 76 76 76 75 75 75 76 76 76 78 80 83 88 89 91 92 94 95 96 97 98 97 96 95 94 93 92 91 90 89 86 83 80 79 77 75 72 72 72 72 72 71 71 71 70 70 70 69 69 69 68 68 68 67 67 67 67 66 66 66 65 65 65 65 65 65 65 65 65 64 64 64 64 64 65 65 65 66 66 66 66 66 67 67 68 69
-1 -1 -1 -1 -1 -1 -1 -1 -1 -1 -1 -1 -1 -1 -1 -1 -1 -1 -1 -1 -1 -1 -1 -1 -1 -1 -1 -1 -1 -1 63 63 63 63 63 63 63 -1 -1 -1 -1 -1 -1 -1 -1 -1 -1 -1 -1 -1 63 63 63 63 63 63 64 64 -1 -1 -1 -1 -1 -1 -1 -1 86 88 90 91 93 93 94 94 95 95 96 97 97 97 97 97 97 96 94 93 91 90 88 88 87 86 86 86 85 85 84 84 83 83 82 82 81 80 78 77 75 74 73 73 72 72 72 71 71 71 71 71 71 71 71 71 72 72 72 -1 -1 -1 -1 71 -1 -1 71 71 74 74 74 74 74 74 74 74 74 74 75 76 76 76 77 77 77 77 77 77 77 77 77 77 77 77 77 77 78 78 78 78 78 78 77 77 77 77 76 76 76 76 76 77 77 79 80 84 89 90 92 93 95 96 97 99 100 99 97 96 95 94 93 92 91 90 89 86 83 80 78 77 75 75 74 73 73 72 72 71 71 70 70 70 69 69 68 68 68 67 67 67 67 66 66 66 65 65 65 65 65 65 65 65 65 65 64 64 64 64 64 65 65 65 65 65 65 66 66 67 67 68
-1 -1 -1 -1 -1 -1 -1 -1 -1 -1 -1 -1 -1 -1 -1 -1 -1 -1 -1 -1 -1 -1 -1 -1 -1 -1 -1 -1 63 64 66 66 66 66 66 66 66 66 65 64 63 -1 -1 -1 -1 -1 -1 -1 63 64 65 64 64 64 63 64 64 65 -1 -1 -1 -1 -1 -1 -1 -1 84 85 88 90 91 92 92 93 93 94 95 96 97 97 97 97 97 96 94 92 90 88 87 87 86 85 85 84 84 83 83 82 82 81 81 80 80 78 77 76 74 74 73 72 72 72 72 71 71 71 71 71 71 71 71 71 72 72 72 71 -1 -1 -1 -1 -1 -1 -1 -1 71 73 73 73 74 74 74 74 74 74 75 75 76 76 76 77 77 77 77 77 77 77 77 77 77 77 78 78 78 78 78 78 78 78 78 78 78 77 77 77 77 77 77 77 77 79 82 85 89 91 93 94 96 98 100 101 103 101 100 98 97 95 94 93 92 91 90 89 87 81 80 79 77 77 76 76 75 74 72 72 71 71 70 70 69 69 68 68 68 67 67 67 67 66 66 66 65 65 65 65 65 65 65 65 65 65 64 64 64 64 64 65 65 65 65 65 65 65 66 66 67 68
-1 -1 -1 -1 -1 -1 -1 -1 -1 -1 -1 -1 -1 -1 -1 -1 -1 -1 -1 -1 -1 -1 -1 -1 -1 -1 -1 63 65 66 68 68 69 69 70 69 69 69 69 67 65 64 -1 -1 -1 -1 -1 63 65 66 67 66 65 64 64 64 64 65 -1 -1 -1 -1 -1 -1 -1 -1 81 83 85 87 89 90 91 91 92 93 94 96 97 97 97 98 98 96 93 91 88 87 87 86 85 84 84 83 83 82 82 81 81 80 79 79 78 77 76 75 74 73 73 72 72 72 72 71 71 71 71 71 71 71 71 71 72 72 72 -1 -1 -1 -1 -1 -1 -1 -1 -1 71 73 73 73 73 73 73 73 74 74 74 75 75 75 76 76 77 77 77 77 78 77 77 77 77 77 78 78 79 79 79 79 79 79 79 79 78 78 78 78 78 78 78 78 78 80 83 86 90 92 94 96 98 100 103 105 106 105 103 101 99 97 96 95 94 93 92 91 90 87 81 80 79 79 78 77 77 75 74 72 72 71 71 70 69 69 69 68 68 67 67 67 67 66 66 66 66 65 65 65 65 65 65 65 65 65 64 64 64 64 64 64 64 64 64 64 64 65 65 65 66 67
-1 -1 -1 -1 -1 -1 -1 -1 -1 -1 -1 -1 -1 -1 -1 -1 -1 -1 -1 -1 -1 -1 -1 -1 -1 -1 -1 64 66 69 71 71 72 72 74 74 73 73 73 70 68 66 64 64 63 63 63 65 67 68 70 69 67 65 64 65 -1 -1 -1 -1 -1 -1 -1 -1 -1 -1 80 81 82 85 87 88 89 90 91 92 93 95 97 97 97 98 98 97 92 89 88 87 86 85 84 83 83 82 82 81 81 80 80 79 78 77 76 75 75 74 73 73 72 72 72 72 71 71 71 71 71 71 71 71 71 71 72 72 -1 -1 -1 -1 -1 -1 -1 -1 -1 -1 72 72 73 73 -1 -1 -1 -1 -1 74 74 74 74 75 75 76 76 77 77 77 78 78 77 77 77 78 78 79 80 80 80 80 80 80 80 79 79 79 79 78 78 78 79 79 79 81 84 87 91 93 95 98 101 104 105 106 107 106 105 104 102 99 97 96 95 94 93 93 92 90 89 86 82 80 80 79 78 77 75 73 72 71 71 70 69 69 69 68 68 68 67 67 67 66 66 66 66 65 65 65 65 65 65 65 65 65 64 64 64 64 64 64 64 64 64 64 64 64 64 64 65 66
-1 -1 -1 -1 -1 -1 -1 -1 -1 -1 -1 -1 -1 -1 -1 -1 -1 -1 -1 -1 -1 -1 -1 -1 -1 -1 64 66 68 70 72 73 74 75 77 76 75 75 75 72 70 68 67 67 66 66 66 68 69 70 70 70 70 69 68 68 68 68 68 68 67 67 -1 -1 -1 -1 75 75 76 77 78 80 83 86 89 90 92 94 97 97 97 98 98 96 91 88 87 86 85 84 83 82 82 81 81 80 80 79 79 78 77 76 76 75 74 74 73 73 72 72 72 72 71 71 71 71 71 71 71 71 71 71 72 71 -1 -1 -1 -1 -1 -1 71 71 71 72 72 73 73 -1 -1 -1 -1 -1 -1 74 74 74 75 75 75 76 76 77 77 77 78 78 78 78 78 79 79 80 81 81 81 81 81 81 81 81 80 80 79 78 78 78 79 80 80 82 85 88 93 95 96 99 103 105 106 107 107 107 106 105 104 101 99 97 96 95 94 94 93 92 90 89 87 82 80 80 79 78 77 75 73 72 71 71 70 70 69 69 68 68 67 67 67 66 66 66 65 65 65 65 65 65 65 65 65 65 65 64 64 65 65 65 65 65 65 65 64 65 65 65 65 66
-1 -1 -1 -1 -1 -1 -1 -1 -1 -1 -1 -1 -1 -1 -1 -1 -1 -1 -1 -1 -1 -1 -1 -1 -1 64 65 67 69 71 74 75 77 78 80 79 78 77 77 75 73 71 70 70 70 69 69 71 72 73 75 74 72 72 71 71 71 71 71 70 69 68 -1 -1 -1 -1 72 72 73 73 74 77 79 83 87 88 90 93 97 97 97 98 98 96 91 88 87 85 84 83 81 81 80 80 79 79 79 78 78 77 77 76 75 75 74 73 73 72 72 72 72 72 71 71 71 71 71 71 71 71 71 71 72 -1 -1 -1 -1 -1 -1 -1 -1 72 72 72 73 73 -1 -1 73 -1 -1 -1 -1 74 74 74 75 75 75 76 76 76 77 77 78 78 78 78 78 79 80 81 83 82 82 82 82 82 82 81 81 81 78 78 78 78 78 81 81 83 86 89 94 96 98 100 104 105 106 107 108 107 106 105 105 102 101 99 97 96 96 95 94 93 92 91 90 88 80 80 79 79 78 76 75 73 72 71 71 70 70 69 68 68 67 67 67 66 66 66 65 65 65 65 65 65 65 65 65 65 65 65 65 65 66 66 67 67 66 66 66 66 65 65 65 66
-1 -1 -1 -1 -1 -1 -1 -1 -1 -1 -1 -1 -1 -1 -1 -1 -1 -1 -1 -1 -1 -1 -1 -1 63 65 67 69 70 73 78 79 81 83 84 83 82 80 79 78 76 75 74 73 73 73 73 74 75 76 77 77 76 76 75 75 75 75 75 72 70 68 -1 -1 -1 -1 69 70 70 71 72 74 77 80 86 87 89 92 97 97 97 97 98 95 90 88 86 85 83 82 80 80 79 79 78 78 77 77 77 76 76 75 75 74 74 73 73 72 72 72 72 71 71 71 71 71 71 71 71 71 71 72 72 -1 -1 -1 -1 -1 -1 -1 -1 72 72 73 73 -1 -1 -1 -1 -1 -1 -1 -1 -1 -1 -1 75 75 75 75 76 76 77 77 78 78 78 78 79 80 82 83 85 84 83 83 83 82 82 82 82 82 82 77 77 78 82 82 82 84 87 90 96 97 99 102 105 106 106 107 108 107 107 106 105 104 102 100 99 98 97 96 96 94 93 93 92 90 89 80 80 79 78 77 76 75 73 72 71 71 70 69 68 68 67 67 67 66 66 66 65 65 65 65 65 65 65 65 65 65 65 65 65 66 67 68 69 68 68 68 68 67 66 65 65 66
-1 -1 -1 -1 -1 -1 -1 -1 -1 -1 -1 -1 -1 -1 -1 -1 -1 -1 -1 -1 -1 -1 -1 -1 63 66 69 70 72 76 84 86 87 88 88 87 87 86 84 83 82 81 80 80 80 79 79 79 80 80 80 81 82 82 83 82 82 82 81 76 72 69 -1 -1 -1 -1 -1 67 68 68 69 72 74 78 85 86 88 91 96 97 97 97 98 95 89 87 86 84 82 81 79 78 77 77 76 76 76 76 76 75 75 75 74 74 73 73 72 72 72 72 72 71 71 71 71 71 71 71 71 71 71 72 72 -1 -1 -1 -1 -1 -1 -1 -1 72 73 73 73 -1 -1 -1 -1 -1 -1 -1 -1 -1 -1 -1 -1 -1 -1 -1 -1 76 77 77 78 78 79 79 79 81 83 86 88 86 85 84 83 83 83 83 83 83 82 76 77 82 82 83 83 85 88 92 97 99 101 103 105 106 107 107 108 108 107 107 106 105 103 102 101 100 99 98 97 96 95 95 94 92 91 89 80 79 79 78 77 76 74 72 72 71 70 69 68 68 68 67 67 66 66 66 65 65 65 65 65 65 65 65 65 65 65 65 65 66 67 69 71 71 71 71 71 68 67 66 65 66
-1 -1 -1 -1 -1 -1 -1 -1 -1 -1 -1 -1 -1 -1 -1 -1 -1 -1 -1 -1 -1 -1 -1 -1 63 66 68 70 72 77 85 87 88 89 90 90 89 89 88 86 85 84 83 83 82 82 82 82 82 83 83 83 84 84 84 84 83 83 82 77 73 71 68 68 68 -1 -1 67 68 68 69 71 74 78 84 86 87 90 95 96 97 97 97 92 88 87 85 83 82 80 79 78 78 77 76 76 76 76 76 75 75 74 74 73 73 73 72 72 72 72 71 71 71 71 71 71 71 71 71 71 71 72 72 71 -1 -1 -1 -1 -1 71 72 73 73 73 73 73 -1 -1 73 -1 74 74 -1 -1 -1 -1 -1 -1 -1 -1 -1 77 77 78 79 80 80 82 83 85 87 89 91 89 87 86 85 85 85 85 85 85 85 85 85 85 85 85 86 88 90 94 99 100 102 104 106 106 107 108 108 108 108 107 107 105 104 103 101 100 100 99 98 97 96 95 95 93 91 90 80 80 79 78 78 77 75 74 72 72 71 70 69 68 68 67 67 67 66 66 66 66 66 65 65 65 65 65 65 66 66 66 66 67 68 69 71 71 71 71 71 69 68 67 66 67
-1 -1 -1 -1 -1 -1 -1 -1 -1 -1 -1 -1 -1 -1 -1 -1 -1 -1 -1 -1 -1 -1 -1 -1 -1 65 68 70 73 78 85 87 89 89 89 90 90 90 90 89 88 87 86 86 85 85 84 85 85 85 86 86 86 86 86 85 85 84 83 79 76 73 71 69 68 -1 -1 67 67 68 68 71 74 78 84 85 87 89 94 94 95 96 97 90 87 86 84 83 82 80 79 78 78 77 76 76 76 76 75 75 75 74 74 73 73 72 72 72 72 71 71 71 71 71 71 71 71 71 71 71 71 72 72 72 72 72 72 72 72 72 73 73 73 73 73 73 74 74 74 74 74 74 -1 -1 -1 -1 -1 75 -1 -1 -1 77 78 80 82 84 86 88 89 90 91 92 93 92 90 89 88 88 87 87 87 87 87 87 88 88 88 88 89 91 94 97 100 102 103 105 106 107 107 108 108 108 108 107 107 106 105 103 102 101 100 100 99 98 97 96 95 94 92 91 89 80 79 79 78 77 76 75 73 72 71 70 69 69 68 68 67 67 67 66 66 66 66 66 66 66 66 66 66 66 67 67 68 68 69 70 71 71 71 71 71 70 69 68 67 68
-1 -1 -1 -1 -1 -1 -1 -1 -1 -1 -1 -1 -1 -1 -1 -1 -1 -1 -1 -1 -1 -1 -1 -1 -1 65 68 70 73 78 85 87 89 89 108 106 90 91 91 91 90 90 89 88 88 87 87 88 88 88 89 89 89 88 88 87 86 85 84 81 78 75 73 71 69 68 -1 67 67 68 68 71 73 77 83 85 86 88 93 93 93 94 94 88 87 85 83 82 81 80 79 79 78 77 77 76 76 76 75 75 74 74 73 73 72 72 72 72 71 71 71 71 71 71 71 71 71 71 71 71 72 72 72 72 72 72 72 72 72 73 73 73 73 73 73 74 74 74 74 74 74 74 -1 74 -1 -1 -1 -1 -1 -1 -1 78 80 82 89 90 90 92 93 94 94 95 96 95 94 93 92 92 92 91 91 91 92 92 92 92 93 94 95 96 98 100 102 103 105 106 107 107 108 108 109 108 108 108 107 106 105 104 103 102 101 100 100 99 98 97 96 95 93 91 90 80 80 79 79 78 77 76 75 73 72 70 69 69 68 68 67 67 67 67 66 66 66 66 66 66 66 66 67 67 68 69 69 70 70 70 71 71 71 71 71 70 70 69 69 69
-1 -1 -1 -1 -1 -1 -1 -1 -1 -1 -1 -1 -1 -1 -1 -1 -1 -1 -1 -1 -1 -1 -1 -1 -1 64 67 70 73 79 85 87 89 105 114 112 110 109 107 107 106 105 91 91 91 91 91 92 92 92 92 92 91 91 90 89 87 86 85 82 80 78 76 73 70 68 -1 67 67 68 68 70 73 77 83 84 86 88 92 89 88 88 89 88 86 84 82 81 81 80 80 79 78 77 77 76 76 76 75 75 74 73 73 73 72 72 72 72 71 71 71 71 71 71 71 71 71 71 71 71 72 72 72 72 72 72 72 72 72 73 73 73 73 74 74 74 74 74 74 74 74 74 -1 -1 -1 -1 -1 -1 -1 -1 -1 79 81 86 91 92 94 95 98 98 98 99 99 99 98 98 98 98 98 98 98 98 97 97 97 98 99 99 100 101 102 103 104 105 106 106 107 108 108 109 109 109 108 108 107 107 106 105 103 103 102 101 101 100 99 98 97 95 94 92 91 89 80 79 79 78 78 77 76 74 72 71 69 69 69 68 68 67 67 67 67 66 66 66 66 66 67 67 67 68 69 70 71 71 71 71 71 71 71 71 71 71 71 71 70 70
-1 -1 -1 -1 -1 -1 -1 -1 -1 -1 -1 -1 -1 -1 -1 -1 -1 -1 -1 -1 -1 -1 -1 -1 -1 63 67 69 72 77 83 86 89 93 111 110 108 107 106 105 105 94 91 91 91 91 94 94 94 94 94 93 92 91 91 89 87 86 84 82 80 78 76 73 70 68 67 67 67 68 68 71 73 77 82 84 86 87 91 90 89 89 89 87 86 84 82 82 81 80 80 79 79 78 77 77 77 76 76 75 74 74 73 73 72 72 72 72 71 71 71 71 71 71 71 71 71 71 71 71 72 72 72 72 72 72 72 72 72 73 73 73 74 74 74 74 74 74 74 74 74 -1 -1 -1 -1 -1 -1 -1 -1 -1 -1 80 83 87 91 92 93 96 99 99 100 101 101 101 101 100 100 100 100 100 99 99 99 99 99 99 100 101 101 102 103 103 104 105 106 107 108 108 108 109 109 109 108 108 107 107 106 105 104 103 103 102 101 100 99 98 97 96 94 93 91 89 80 79 79 78 78 77 76 75 73 72 71 70 69 69 68 68 68 67 67 67 67 67 67 68 68 68 69 69 70 70 71 71 71 71 71 71 71 71 71 71 71 71 71 71
-1 -1 -1 -1 -1 -1 -1 -1 -1 -1 -1 -1 -1 -1 -1 -1 -1 -1 -1 -1 -1 -1 -1 -1 -1 63 66 68 71 75 82 85 88 93 107 106 105 105 94 95 95 96 100 102 105 105 105 96 96 95 95 94 93 92 91 89 87 85 84 81 79 77 76 73 70 68 67 67 67 68 68 71 73 77 82 83 85 87 89 89 89 88 88 87 85 84 82 82 81 81 80 80 79 79 78 78 77 77 76 75 75 74 73 72 72 72 72 71 71 71 71 71 71 71 71 71 71 71 71 72 72 72 72 72 72 72 72 72 73 73 74 74 74 74 74 74 74 74 74 74 74 -1 -1 -1 -1 -1 -1 -1 -1 -1 -1 81 84 88 91 92 93 96 100 101 102 103 104 104 103 103 103 103 102 102 102 101 101 101 101 101 101 102 102 103 103 104 105 106 107 107 108 108 109 109 109 109 108 108 107 107 106 106 105 104 103 102 102 100 99 98 97 96 94 93 91 90 80 80 79 78 78 77 77 76 74 72 72 71 70 69 68 68 68 68 67 68 68 68 69 69 69 70 70 70 70 70 71 71 71 71 71 71 71 71 71 71 71 71 71 71
-1 -1 -1 -1 -1 -1 -1 -1 -1 -1 -1 -1 -1 -1 -1 -1 -1 -1 -1 -1 -1 -1 -1 -1 -1 -1 65 67 70 73 80 83 87 92 99 98 96 96 96 97 100 102 113 107 108 108 108 105 100 97 96 95 92 91 91 89 87 85 83 81 79 77 76 73 70 68 67 67 68 68 69 71 73 77 81 83 85 86 88 88 88 88 88 86 85 84 83 82 82 81 81 81 80 80 79 78 78 77 77 76 75 74 73 72 72 72 72 71 71 71 71 71 71 71 71 71 71 71 72 72 72 72 72 72 72 72 72 73 73 73 74 74 74 74 74 74 74 74 74 74 74 -1 -1 -1 -1 -1 -1 -1 -1 -1 -1 -1 -1 89 91 92 93 97 102 104 105 106 108 107 107 107 107 106 105 105 104 104 103 103 102 103 103 103 103 104 104 105 106 106 107 108 109 109 109 109 110 109 109 108 107 107 106 106 105 105 104 103 102 101 99 98 97 96 94 93 92 90 89 80 79 79 78 78 77 76 75 74 73 72 71 70 69 69 68 68 68 68 69 70 71 71 71 71 71 71 70 71 71 71 71 71 71 71 71 70 70 71 71 71 71 71
-1 -1 -1 -1 -1 -1 -1 -1 -1 -1 -1 -1 -1 -1 -1 -1 -1 -1 -1 -1 -1 -1 -1 -1 -1 -1 64 67 69 72 77 82 86 92 98 98 98 98 98 100 101 102 115 114 113 112 111 108 105 100 93 92 91 91 91 89 86 84 82 80 78 77 75 73 70 68 67 67 68 68 69 71 73 77 81 82 84 86 87 87 87 87 87 86 85 84 83 83 82 82 82 81 81 80 80 79 79 78 77 76 75 74 73 72 72 72 72 71 71 71 71 71 71 71 71 71 71 71 72 72 72 72 72 72 72 72 73 73 73 74 74 74 74 74 74 74 74 73 73 74 74 -1 -1 -1 -1 -1 -1 -1 -1 -1 -1 -1 -1 -1 -1 -1 -1 97 105 106 108 110 112 112 112 112 112 110 109 108 107 107 106 105 104 104 104 104 104 105 105 106 106 107 108 108 109 109 110 110 110 109 109 108 107 107 107 106 106 105 105 104 103 101 100 99 97 96 95 93 92 91 89 80 79 79 78 78 77 77 76 75 75 73 71 70 69 69 69 68 68 69 70 71 74 74 73 73 73 73 72 72 71 71 71 71 71 71 70 70 70 70 71 71 71 71
-1 -1 -1 -1 -1 -1 -1 -1 -1 -1 -1 -1 -1 -1 -1 -1 -1 -1 -1 -1 -1 -1 -1 -1 -1 -1 63 66 68 71 76 80 85 91 98 98 98 97 97 98 99 100 101 102 105 107 108 105 92 92 93 91 91 91 89 86 83 80 77 76 75 74 73 72 70 69 67 68 69 70 71 72 75 78 82 83 84 86 87 87 87 86 86 85 85 84 83 83 82 82 81 81 81 80 80 79 79 78 78 77 75 74 73 73 72 72 72 72 71 71 71 71 71 71 71 71 72 72 72 72 72 72 72 72 72 72 72 73 73 73 73 73 73 73 73 73 73 73 73 73 73 -1 -1 -1 -1 -1 -1 -1 -1 -1 -1 -1 -1 -1 -1 -1 -1 100 107 108 110 111 113 113 113 113 113 112 111 110 109 108 108 107 106 106 106 106 106 106 106 107 107 108 109 109 110 110 110 111 111 110 109 109 108 108 107 107 106 106 105 104 103 101 100 99 97 96 94 93 92 91 89 80 79 79 78 78 78 77 77 76 75 74 72 71 70 70 70 70 69 70 71 72 74 74 73 73 73 72 72 72 71 71 71 71 71 71 70 70 70 70 71 71 71 71
-1 -1 -1 -1 -1 -1 -1 -1 -1 -1 -1 -1 -1 -1 -1 -1 -1 -1 -1 -1 -1 -1 -1 -1 -1 -1 -1 65 67 70 74 79 84 90 98 98 97 97 96 97 98 98 99 99 100 101 105 92 92 92 93 91 90 88 87 83 79 76 74 73 72 72 71 70 70 69 68 69 70 71 73 75 77 79 82 83 84 85 86 86 86 86 85 85 84 83 83 82 82 81 81 81 80 80 80 79 79 78 78 77 76 75 74 73 72 72 72 72 72 71 71 71 71 72 72 72 72 72 72 72 72 72 72 72 72 72 72 72 73 73 73 73 73 73 73 73 73 73 73 73 73 -1 -1 -1 -1 -1 -1 -1 -1 -1 -1 -1 -1 -1 -1 -1 -1 102 108 109 111 112 114 114 114 114 114 113 113 112 111 110 110 109 108 108 108 107 107 108 108 108 109 110 110 110 111 111 111 111 112 111 110 110 109 109 108 107 107 106 105 105 103 102 100 99 98 96 94 93 92 90 89 80 79 79 79 78 78 77 77 77 76 75 74 72 72 71 71 71 71 71 72 73 74 74 73 73 73 72 72 72 71 71 71 71 71 71 71 70 70 70 71 71 71 71
-1 -1 -1 -1 -1 -1 -1 -1 -1 -1 -1 -1 -1 -1 -1 -1 -1 -1 -1 -1 -1 -1 -1 -1 -1 -1 -1 64 67 70 73 78 83 88 98 98 97 97 96 96 97 97 98 97 94 92 92 92 92 92 91 89 87 86 85 80 76 73 71 71 70 70 69 69 69 69 69 70 72 74 76 77 79 81 83 84 85 85 86 86 85 85 85 84 84 83 83 82 82 81 81 80 80 80 80 79 79 79 78 77 76 75 74 73 73 72 72 72 72 72 72 72 72 72 72 72 72 72 72 72 72 72 72 72 72 72 72 72 72 72 72 72 72 72 72 72 72 72 72 72 73 -1 -1 -1 -1 -1 -1 -1 -1 77 78 82 87 91 96 97 99 103 109 110 112 113 115 115 115 115 115 114 114 113 113 112 112 111 110 110 110 110 109 110 110 111 112 112 112 112 112 112 112 113 113 112 112 111 110 110 109 108 107 106 106 105 104 102 100 99 98 96 94 93 92 90 89 80 79 79 79 78 78 78 77 77 77 76 75 74 73 72 72 72 72 72 72 73 74 74 73 73 72 72 72 72 71 71 71 71 71 71 71 70 70 71 71 71 71 71
-1 -1 -1 -1 -1 -1 -1 -1 -1 -1 -1 -1 -1 -1 -1 -1 -1 -1 -1 -1 -1 -1 -1 -1 -1 -1 -1 63 66 69 72 76 81 87 98 98 97 96 95 95 96 96 96 94 93 93 92 91 90 90 89 87 86 84 83 78 74 71 64 64 64 64 68 68 69 69 70 72 74 77 80 81 82 83 84 84 85 85 85 85 85 84 84 83 83 83 83 82 82 81 80 80 80 80 79 79 79 79 79 78 77 76 75 74 73 72 72 72 72 72 72 72 72 72 72 72 72 72 72 72 72 72 72 72 72 72 72 72 72 72 72 72 72 72 72 72 72 72 72 -1 -1 -1 -1 -1 -1 -1 -1 -1 -1 76 77 81 87 92 98 99 101 105 110 111 112 113 116 116 116 116 117 116 115 115 114 114 114 113 113 113 112 112 112 112 113 113 114 114 113 113 113 113 113 114 114 113 113 113 112 111 110 109 108 107 106 105 104 102 100 99 98 95 94 92 91 90 89 89 80 79 79 79 78 78 78 77 77 77 76 75 75 75 75 75 77 75 75 74 74 74 73 73 72 72 72 72 71 71 71 71 71 71 71 71 71 71 71 71 71 71
-1 -1 -1 -1 -1 -1 -1 -1 -1 -1 -1 -1 -1 -1 -1 -1 -1 -1 -1 -1 -1 -1 -1 -1 -1 -1 -1 -1 65 69 72 76 81 87 97 97 95 94 93 93 92 92 92 91 90 89 89 88 87 87 86 83 81 79 77 74 72 70 64 64 64 64 68 69 70 71 72 73 75 78 81 82 83 84 84 85 85 85 85 85 84 84 83 83 83 83 82 82 82 81 81 80 80 80 79 79 79 79 79 78 77 76 75 74 73 73 72 72 72 72 72 72 72 72 72 73 73 73 73 73 73 73 73 72 72 72 72 72 72 72 72 72 72 72 72 72 72 72 72 -1 -1 -1 -1 -1 -1 -1 -1 -1 -1 76 77 82 86 91 97 98 100 104 110 111 112 113 115 116 116 116 117 116 115 115 114 114 114 113 113 113 113 113 112 113 113 114 114 114 114 114 114 114 114 114 114 113 113 112 112 111 110 109 108 106 103 101 100 99 98 98 97 95 93 92 91 90 89 89 80 79 79 79 78 78 78 78 77 77 77 76 75 76 76 77 78 77 76 76 75 75 74 73 72 72 72 72 71 71 71 71 71 71 71 71 71 71 71 71 71 71
-1 -1 -1 -1 -1 -1 -1 -1 -1 -1 -1 -1 -1 -1 -1 -1 -1 -1 -1 -1 -1 -1 -1 -1 -1 -1 -1 -1 65 68 72 76 80 87 97 95 94 92 92 91 90 90 89 88 87 87 87 86 85 84 84 80 78 75 73 72 71 64 64 64 64 64 68 69 71 72 74 75 77 79 82 83 84 84 85 85 85 85 85 84 84 83 83 83 82 82 82 82 82 81 81 81 80 80 80 79 79 79 79 78 77 76 75 75 74 74 73 73 73 73 73 73 73 73 73 73 73 73 73 73 73 73 73 73 72 72 72 72 72 72 72 72 72 72 72 72 72 72 72 -1 -1 -1 -1 -1 -1 -1 -1 -1 75 76 79 83 86 89 94 97 99 104 110 111 112 113 115 115 116 116 117 116 116 115 114 114 114 114 113 113 113 113 113 113 114 114 115 115 115 115 114 114 114 114 114 113 113 112 112 111 109 109 108 105 101 99 98 98 98 97 97 95 93 92 91 90 89 89 80 80 79 79 78 78 78 78 78 77 77 77 76 76 77 78 79 78 77 77 77 76 74 73 72 72 72 72 71 71 71 71 71 71 71 71 71 71 71 71 71 71
-1 -1 -1 -1 -1 -1 -1 -1 -1 -1 -1 -1 -1 -1 -1 -1 -1 -1 -1 -1 -1 -1 -1 -1 -1 -1 -1 -1 65 68 72 75 80 86 96 94 92 91 90 90 89 88 87 86 86 85 85 84 83 82 82 78 75 72 70 70 64 64 64 64 64 64 68 70 72 74 77 78 80 81 83 84 84 85 85 85 85 85 85 84 84 83 83 82 82 82 81 81 82 82 82 81 81 80 80 79 79 79 78 78 77 76 76 75 75 74 74 74 74 74 74 74 74 74 74 74 74 74 74 74 74 74 74 73 72 72 72 72 72 72 72 72 -1 -1 -1 -1 72 72 72 -1 -1 -1 -1 -1 -1 -1 -1 -1 74 77 81 83 86 88 91 95 99 103 109 110 112 113 115 115 116 116 117 116 116 115 115 114 114 114 113 113 113 113 113 114 114 115 115 115 115 115 115 115 114 114 114 113 113 112 112 110 109 108 108 103 100 98 98 98 97 97 96 94 93 92 91 90 89 89 80 80 79 79 79 78 78 78 78 78 77 77 77 77 77 78 79 78 78 78 78 76 75 74 72 72 72 72 71 71 71 71 71 71 71 71 71 71 71 71 71 71
-1 -1 -1 -1 -1 -1 -1 -1 -1 -1 -1 -1 -1 -1 -1 -1 -1 -1 -1 -1 -1 -1 -1 -1 -1 -1 -1 -1 65 68 71 75 79 86 95 93 92 91 90 89 87 86 85 85 84 84 83 82 82 81 80 76 73 69 64 64 64 64 64 64 64 64 69 71 73 76 81 82 83 84 85 85 85 85 86 85 85 85 84 84 83 83 83 82 82 81 81 81 81 82 82 82 81 80 80 79 79 79 78 78 77 77 76 76 75 75 75 75 75 75 75 75 75 75 75 75 75 75 75 75 74 74 74 73 72 72 72 72 72 71 71 -1 -1 -1 -1 -1 -1 -1 -1 -1 -1 -1 -1 -1 -1 -1 -1 -1 74 77 82 84 85 87 89 93 98 102 109 110 111 113 114 115 116 116 117 116 116 115 115 114 114 114 114 114 114 113 113 114 115 115 116 116 116 116 116 115 115 114 114 113 112 112 111 110 109 108 108 102 99 98 97 97 97 97 95 94 93 92 91 90 89 88 80 80 79 79 79 79 78 78 78 78 78 77 77 77 78 78 79 79 79 79 79 77 76 74 72 72 72 72 71 71 71 71 71 71 71 71 71 71 71 71 71 71
-1 -1 -1 -1 -1 -1 -1 -1 -1 -1 -1 -1 -1 -1 -1 -1 -1 -1 -1 -1 -1 -1 -1 -1 -1 -1 -1 -1 65 68 71 74 79 85 92 91 90 89 88 87 85 84 83 81 80 78 77 77 76 75 75 73 69 68 64 64 64 64 64 64 69 70 71 73 75 78 82 82 83 84 84 85 85 85 85 85 85 84 84 83 83 82 82 81 80 80 79 79 80 80 80 79 79 78 78 77 77 77 76 76 76 76 75 75 75 75 75 75 76 76 76 76 76 76 77 76 76 76 76 76 75 75 74 73 72 72 72 72 71 71 71 71 -1 -1 -1 -1 -1 -1 -1 -1 -1 -1 72 -1 -1 -1 -1 73 74 75 80 82 84 86 89 93 98 103 109 110 112 113 115 115 116 117 117 117 116 115 115 114 114 114 114 114 114 113 113 114 115 115 116 116 115 115 115 115 114 114 113 112 112 111 111 109 108 107 105 100 98 98 97 97 97 96 95 94 93 92 92 91 90 89 80 80 80 79 79 79 79 78 78 78 78 78 77 78 78 78 78 79 79 79 79 78 76 75 73 72 72 72 72 72 72 72 72 72 71 71 71 71 71 71 71 71
-1 -1 -1 -1 -1 -1 -1 -1 -1 -1 -1 -1 -1 -1 -1 -1 -1 -1 -1 -1 -1 -1 -1 -1 -1 -1 -1 -1 64 67 71 74 79 84 91 89 88 87 86 85 84 83 81 78 76 74 73 72 72 69 68 68 68 65 64 64 64 64 69 70 71 72 73 74 76 79 82 83 83 84 84 85 85 85 85 85 84 84 83 83 82 81 81 80 79 78 77 78 78 78 78 77 76 76 75 75 75 75 75 75 75 75 75 75 75 75 75 76 76 77 77 77 78 78 78 78 78 78 78 77 76 75 74 73 72 72 72 71 71 71 71 71 71 -1 -1 -1 -1 -1 -1 -1 -1 -1 -1 -1 -1 -1 -1 73 73 74 76 78 80 83 88 93 98 103 109 111 112 114 115 116 116 117 118 117 116 115 115 114 114 114 114 114 114 114 113 114 114 115 115 115 115 115 115 114 114 113 113 112 111 111 110 108 106 104 102 99 98 98 97 97 97 96 95 94 93 92 92 91 90 89 80 80 80 79 79 79 79 79 78 78 78 78 78 78 78 78 78 78 78 79 79 78 77 76 74 73 73 72 72 72 72 72 72 72 72 71 71 71 71 71 72 71
-1 -1 -1 -1 -1 -1 -1 -1 -1 -1 -1 -1 -1 -1 -1 -1 -1 -1 -1 -1 -1 -1 -1 -1 -1 -1 -1 -1 64 67 71 73 78 84 89 88 87 86 85 83 82 81 80 76 73 71 70 69 68 68 68 67 66 64 64 64 64 69 71 72 73 74 75 77 78 80 83 83 83 84 84 84 84 85 85 84 84 83 83 82 81 80 79 78 77 76 76 76 76 75 75 75 74 73 73 73 73 74 74 74 74 74 74 74 75 75 75 76 77 78 78 79 79 79 80 80 80 80 80 78 77 76 75 73 72 72 71 71 71 71 71 71 71 71 -1 -1 -1 -1 -1 -1 72 -1 -1 -1 -1 -1 -1 73 73 74 75 76 77 78 79 93 98 103 109 111 113 114 115 116 117 117 118 117 116 116 115 115 114 114 114 114 114 114 114 114 114 114 115 115 115 115 115 114 113 113 112 111 111 110 110 107 104 101 100 99 98 97 97 97 97 96 95 94 93 93 92 91 90 89 80 80 80 79 79 79 79 79 78 78 78 78 78 78 78 78 78 78 78 79 79 78 77 76 75 74 73 72 72 72 72 72 72 72 72 72 71 71 72 72 72 71
-1 -1 -1 -1 -1 -1 -1 -1 -1 -1 -1 -1 -1 -1 -1 -1 -1 -1 -1 -1 -1 -1 -1 -1 -1 -1 -1 -1 64 67 70 73 78 83 89 87 86 85 84 82 81 79 78 74 71 68 66 66 66 65 65 65 64 64 64 64 64 70 74 75 76 77 78 79 80 82 83 84 84 84 84 84 84 84 84 84 83 83 82 81 80 79 78 77 76 75 74 74 74 73 73 72 72 72 71 72 72 72 73 73 73 73 74 74 74 75 75 76 77 78 79 80 81 81 82 82 82 82 82 81 79 77 75 73 72 72 71 71 71 71 71 71 71 71 71 -1 -1 -1 -1 -1 -1 72 -1 -1 -1 -1 -1 73 73 74 74 75 75 75 76 93 98 103 110 111 113 114 116 116 117 118 118 118 117 116 115 115 114 114 114 114 114 114 114 114 114 114 114 114 114 114 114 114 113 112 112 111 110 110 109 106 102 100 99 98 98 97 97 97 97 96 95 94 94 93 93 91 90 89 80 80 80 80 79 79 79 79 79 78 78 78 78 78 78 78 78 78 78 79 79 79 78 77 76 75 74 73 72 72 72 72 72 72 72 72 71 72 72 72 72 72
-1 -1 -1 -1 -1 -1 -1 -1 -1 -1 -1 -1 -1 -1 -1 -1 -1 -1 -1 -1 -1 -1 -1 -1 -1 -1 -1 -1 65 67 71 72 76 79 83 81 80 79 77 76 75 74 73 71 67 67 65 65 65 64 64 64 64 64 64 64 64 70 73 75 76 77 78 79 79 80 82 82 82 82 82 82 82 82 82 82 81 81 81 80 78 77 76 75 74 73 72 72 72 71 71 71 70 70 70 70 71 71 71 72 72 72 72 72 73 73 74 75 76 77 78 79 80 81 82 82 82 81 81 80 78 76 75 72 72 72 71 71 71 71 71 71 71 71 71 71 -1 -1 72 72 72 72 72 72 72 73 73 73 73 74 74 74 75 75 76 91 97 103 110 112 113 114 116 116 117 117 118 117 116 116 115 113 111 110 109 110 111 112 113 113 113 113 112 113 113 113 113 113 113 112 111 109 107 105 104 101 99 99 98 98 97 97 97 97 97 96 95 94 94 93 93 91 90 88 80 80 80 79 79 79 79 79 79 78 78 78 78 78 78 78 77 78 78 78 78 78 77 76 75 74 73 72 71 72 72 72 72 72 72 72 72 72 72 72 72 71
-1 -1 -1 -1 -1 -1 -1 -1 -1 -1 -1 -1 -1 -1 -1 -1 -1 -1 -1 -1 -1 -1 -1 -1 -1 -1 -1 -1 65 68 71 72 74 76 78 76 75 74 73 72 71 71 70 66 66 65 64 64 64 64 64 64 64 64 64 64 64 70 73 74 75 76 77 78 79 79 80 80 80 80 80 80 80 80 80 80 80 79 79 78 77 75 74 73 72 72 71 71 70 70 70 70 69 69 69 69 70 70 70 70 71 71 71 71 72 72 72 74 75 76 77 78 79 80 81 81 81 81 81 79 77 76 75 72 72 71 71 71 71 71 71 71 71 71 71 71 71 72 72 72 72 72 73 73 73 73 74 74 74 74 74 74 75 75 76 89 96 103 110 112 113 114 116 116 117 117 118 117 116 116 115 112 109 108 108 108 109 111 113 112 112 111 111 112 112 113 113 113 112 112 111 107 105 102 101 99 99 98 98 97 97 97 97 97 96 96 95 94 94 93 93 91 90 86 80 80 80 79 79 79 79 79 79 79 78 78 78 78 78 78 77 77 78 78 78 77 76 76 75 73 72 72 71 71 72 72 73 73 72 72 72 72 72 72 71 71
-1 -1 -1 -1 -1 -1 -1 -1 -1 -1 -1 -1 -1 -1 -1 -1 -1 -1 -1 -1 -1 -1 -1 -1 -1 -1 -1 -1 65 68 71 72 72 73 74 73 72 71 70 69 69 65 65 66 65 64 64 64 64 63 63 63 64 64 64 64 65 69 72 73 75 76 77 77 78 79 79 79 79 79 79 79 79 79 79 79 78 78 77 76 75 74 73 72 72 71 70 70 69 69 69 68 68 68 68 68 69 69 69 70 70 70 70 70 71 71 72 72 73 74 75 76 77 79 81 80 80 80 80 78 77 75 74 72 72 71 71 71 71 71 71 71 71 71 71 71 72 72 72 72 72 73 74 74 74 74 75 75 74 74 74 74 75 75 76 78 94 102 110 112 113 114 116 116 117 117 117 117 116 115 115 110 108 107 107 107 108 110 113 112 111 111 110 111 111 112 113 113 112 111 111 106 103 101 99 99 98 98 98 97 97 97 97 97 96 95 95 94 94 93 93 91 90 84 80 80 80 79 79 79 79 79 79 79 79 78 78 78 78 78 77 77 77 77 77 76 76 75 74 72 72 71 70 71 71 72 73 73 73 72 72 72 72 71 71 71
-1 -1 -1 -1 -1 -1 -1 -1 -1 -1 -1 -1 -1 -1 -1 -1 -1 -1 -1 -1 -1 -1 -1 -1 -1 -1 -1 63 65 68 72 72 72 72 71 71 70 69 68 67 65 65 65 65 64 64 63 63 63 63 63 63 63 63 64 65 67 69 72 73 74 75 76 77 77 78 78 78 78 78 77 77 78 78 78 77 77 76 75 74 73 72 72 71 71 70 70 69 69 68 68 68 67 67 67 67 68 68 69 69 69 69 70 70 70 71 71 72 72 73 74 75 76 77 79 79 79 79 79 77 76 75 74 72 72 71 71 71 71 71 71 71 71 71 71 71 72 72 72 72 73 74 75 75 75 75 76 75 75 74 74 74 75 75 76 78 93 102 111 112 113 114 116 116 116 117 117 117 116 115 115 110 108 107 106 107 108 109 112 111 111 110 109 110 110 111 113 112 112 111 111 105 101 100 99 98 98 98 97 97 97 97 97 96 96 95 95 94 94 93 93 91 90 81 80 80 80 79 79 79 79 79 79 79 79 78 78 78 78 78 77 77 77 77 76 76 75 74 73 72 71 71 70 71 71 72 73 73 73 73 72 72 72 71 71 71
-1 -1 -1 -1 -1 -1 -1 -1 -1 -1 -1 -1 -1 -1 -1 -1 -1 -1 -1 -1 -1 -1 -1 -1 -1 -1 -1 -1 65 67 70 70 71 71 71 70 69 68 68 67 65 65 65 65 64 64 63 63 63 63 63 63 63 63 64 65 66 68 71 72 72 73 74 75 75 75 75 75 75 75 75 75 75 75 75 74 74 73 73 72 72 71 71 70 69 68 67 66 66 66 65 65 65 65 65 65 65 66 66 66 67 67 67 68 69 69 70 71 71 72 73 74 75 76 78 78 78 78 78 77 76 75 74 72 72 71 71 71 71 71 71 71 71 71 72 72 72 72 73 74 75 75 76 76 76 76 77 77 76 76 76 76 77 77 78 79 95 102 111 112 113 114 116 116 116 116 116 113 110 108 106 105 104 104 103 103 104 104 104 105 105 105 105 106 106 106 107 107 106 106 106 102 100 99 98 98 98 97 97 97 97 97 97 96 96 95 95 94 94 93 93 91 89 81 80 80 80 79 79 79 79 79 79 79 79 79 78 78 78 78 78 77 77 77 77 76 76 75 74 74 73 72 72 72 72 73 74 74 73 73 73 72 72 71 71 71
-1 -1 -1 -1 -1 -1 -1 -1 -1 -1 -1 -1 -1 -1 -1 -1 -1 -1 -1 -1 -1 -1 -1 -1 -1 -1 -1 -1 64 66 69 69 70 70 71 70 69 68 67 66 65 65 65 64 64 64 63 63 63 63 -1 63 63 63 64 65 66 68 70 71 71 72 72 72 72 73 73 73 73 73 73 73 72 72 72 72 72 72 72 71 71 71 70 69 67 66 65 64 64 63 63 63 63 63 -1 63 63 63 64 64 64 65 65 66 67 68 70 70 71 71 72 73 74 75 77 77 77 77 77 76 75 74 74 72 72 71 71 71 71 71 71 71 71 72 72 72 73 74 74 75 76 76 77 77 77 77 77 78 78 78 78 78 78 79 79 90 96 103 111 112 113 114 115 115 115 114 113 109 106 104 103 102 100 99 96 98 99 100 100 101 101 102 102 102 103 103 104 104 103 103 103 100 99 98 98 98 98 97 97 97 97 97 97 97 96 96 95 94 94 93 93 91 89 82 80 80 80 79 79 79 79 79 79 79 79 79 78 78 78 78 78 77 77 77 77 76 76 76 75 75 75 74 74 74 74 74 74 74 74 73 73 73 72 72 71 71
-1 -1 -1 -1 -1 -1 -1 -1 -1 -1 -1 -1 -1 -1 -1 -1 -1 -1 -1 -1 -1 -1 -1 -1 -1 -1 -1 -1 64 66 67 68 69 69 70 69 68 68 67 65 65 65 65 64 64 63 63 63 63 63 -1 63 63 63 63 64 66 68 70 70 70 70 71 71 71 70 70 70 70 70 70 70 70 70 70 70 70 70 70 70 70 70 70 68 66 64 63 63 -1 -1 -1 -1 -1 -1 -1 -1 -1 -1 -1 -1 -1 63 63 64 66 67 69 70 70 71 72 72 73 74 75 76 76 76 76 75 75 74 73 72 72 71 71 71 71 71 71 71 72 72 72 73 74 75 76 76 77 77 77 77 78 78 78 78 78 79 79 79 80 80 80 92 97 103 111 113 113 114 115 114 113 112 111 106 104 102 101 100 98 96 93 95 97 98 99 99 99 100 100 101 101 101 102 102 101 101 101 100 99 98 98 97 97 97 97 97 97 97 97 97 96 96 95 95 94 93 93 91 89 82 80 80 80 79 79 79 79 79 79 79 79 79 79 78 78 78 78 78 77 77 77 77 76 76 76 76 76 76 76 76 76 75 75 74 74 74 73 73 72 72 71 71
-1 -1 -1 -1 -1 -1 -1 -1 -1 -1 -1 -1 -1 -1 -1 -1 -1 -1 -1 -1 -1 -1 -1 -1 -1 -1 -1 -1 64 65 66 67 68 69 70 69 68 67 67 65 65 65 64 64 64 63 63 63 63 63 -1 63 63 63 63 64 65 67 69 69 69 69 69 69 69 69 68 68 68 68 68 68 68 69 69 69 69 69 70 69 69 69 69 67 65 63 -1 -1 -1 -1 -1 -1 -1 -1 -1 -1 -1 -1 -1 -1 -1 -1 -1 63 64 66 68 69 69 70 71 72 72 73 74 74 75 75 75 74 74 74 73 72 72 71 71 71 71 71 71 71 72 72 74 75 75 76 76 77 77 78 78 78 78 78 79 79 79 80 80 80 81 89 90 93 98 104 111 113 113 114 115 114 112 110 109 105 103 101 100 99 97 93 91 93 95 97 98 98 98 99 99 100 100 100 101 100 100 100 100 99 98 98 97 97 97 97 97 97 97 97 97 97 96 96 95 95 94 93 93 90 89 82 80 80 80 80 79 79 79 79 79 79 79 79 79 78 78 78 78 78 77 77 77 77 77 77 77 77 77 78 78 78 77 76 75 75 74 74 73 73 72 72 71 71
-1 -1 -1 -1 -1 -1 -1 -1 -1 -1 -1 -1 -1 -1 -1 -1 -1 -1 -1 -1 -1 -1 -1 -1 -1 -1 -1 -1 -1 63 65 66 67 68 70 69 69 68 68 65 65 65 64 64 64 63 63 63 63 -1 -1 -1 63 63 63 64 64 65 66 66 66 66 66 65 65 64 64 64 64 64 64 64 64 65 65 66 67 67 68 68 68 68 67 65 64 -1 -1 -1 -1 -1 -1 -1 -1 -1 -1 -1 -1 -1 -1 -1 -1 -1 -1 -1 64 65 68 68 69 70 72 73 74 76 78 79 79 79 79 77 75 74 72 72 71 71 71 71 71 71 71 72 72 73 75 76 76 77 77 77 78 78 78 78 78 79 79 79 79 80 80 80 82 85 89 92 97 104 111 112 113 114 114 111 108 106 104 102 101 99 98 97 93 91 89 90 92 94 96 96 96 97 97 97 97 97 97 97 97 97 97 97 96 96 95 95 95 95 95 94 92 91 90 91 91 92 92 92 91 90 90 89 82 80 80 80 80 80 79 79 79 79 79 79 79 79 79 79 79 79 79 78 78 78 78 78 78 78 78 78 78 79 79 79 78 78 77 76 76 75 75 74 73 73 72 72
-1 -1 -1 -1 -1 -1 -1 -1 -1 -1 -1 -1 -1 -1 -1 -1 -1 -1 -1 -1 -1 -1 -1 -1 -1 -1 -1 -1 -1 -1 63 65 66 68 70 70 70 70 69 64 64 65 64 64 63 63 63 63 -1 -1 -1 -1 63 63 64 64 64 64 64 63 63 63 63 63 -1 -1 -1 -1 -1 -1 -1 -1 -1 63 63 64 65 66 67 67 66 66 66 64 63 -1 -1 -1 -1 -1 -1 -1 -1 -1 -1 -1 -1 -1 -1 -1 -1 -1 -1 -1 63 65 67 68 69 71 73 75 77 79 82 82 82 82 82 80 77 74 72 72 71 71 71 71 71 71 71 72 72 74 76 76 77 77 78 78 78 78 78 79 79 79 79 79 80 80 80 80 82 84 87 92 96 105 110 111 112 113 114 108 105 103 102 100 98 97 94 91 90 88 87 88 89 90 91 91 92 92 92 92 93 93 93 92 92 91 90 91 92 92 93 92 92 91 89 88 88 87 86 87 88 89 90 89 89 88 85 82 80 80 80 80 80 80 79 79 79 79 79 79 79 79 79 79 79 79 79 79 79 79 79 79 79 79 79 79 79 80 80 80 79 79 78 78 77 77 76 75 74 73 72 72
-1 -1 -1 -1 -1 -1 -1 -1 -1 -1 -1 -1 -1 -1 -1 -1 -1 -1 -1 -1 -1 -1 -1 -1 -1 -1 -1 -1 -1 -1 -1 64 66 68 71 71 71 71 71 69 64 64 64 64 63 63 63 -1 -1 -1 -1 -1 63 63 64 64 63 -1 -1 -1 -1 -1 -1 -1 -1 -1 -1 -1 -1 -1 -1 -1 -1 -1 -1 -1 63 64 66 65 65 65 65 63 -1 -1 -1 -1 -1 -1 -1 -1 -1 -1 -1 -1 -1 -1 -1 -1 -1 -1 -1 -1 63 64 66 68 69 71 75 77 80 81 83 83 83 83 84 82 79 74 72 71 71 71 71 71 71 71 71 72 73 75 76 77 77 78 78 78 78 78 79 79 79 79 79 80 80 80 80 81 82 83 85 91 95 106 110 110 111 112 113 106 103 101 100 98 95 91 87 87 86 86 86 87 87 87 87 88 88 88 89 89 90 90 90 89 88 88 87 88 89 90 91 90 89 88 87 87 86 85 83 84 84 85 87 86 84 83 81 80 80 80 80 80 80 80 80 79 79 79 79 79 79 79 79 79 79 80 80 80 80 80 80 80 80 80 80 80 80 81 81 81 80 80 80 79 79 78 77 76 75 74 73 72
-1 -1 -1 -1 -1 -1 -1 -1 -1 -1 -1 -1 -1 -1 -1 -1 -1 -1 -1 -1 -1 -1 -1 -1 -1 -1 -1 -1 -1 -1 -1 63 65 68 71 72 72 73 73 70 64 65 64 64 63 63 -1 -1 -1 -1 -1 -1 63 64 64 63 -1 -1 -1 -1 -1 -1 -1 -1 -1 -1 -1 -1 -1 -1 -1 -1 -1 -1 -1 -1 -1 63 65 64 64 64 64 -1 -1 -1 -1 -1 -1 -1 -1 -1 -1 -1 -1 -1 -1 -1 -1 -1 -1 -1 -1 -1 -1 64 66 67 69 72 76 79 81 82 84 84 84 84 84 83 80 74 71 71 71 71 71 71 71 71 71 72 74 76 77 77 78 78 78 78 79 79 79 79 79 79 79 80 80 80 81 81 82 83 84 90 94 106 109 110 110 111 112 104 101 99 98 96 91 85 83 84 84 85 85 85 85 85 85 86 86 87 87 87 88 88 89 88 87 87 86 87 88 89 90 89 88 87 86 86 85 83 80 80 80 80 80 80 80 80 80 80 80 80 80 80 80 80 80 79 79 79 79 79 79 79 79 79 80 80 81 81 81 82 82 82 83 83 83 83 83 83 83 83 82 82 81 81 80 80 79 77 76 75 73 73
-1 -1 -1 -1 -1 -1 -1 -1 -1 -1 -1 -1 -1 -1 -1 -1 -1 -1 -1 -1 -1 -1 -1 -1 -1 -1 -1 -1 -1 -1 -1 -1 63 66 70 71 71 72 73 70 65 65 65 64 64 63 -1 -1 -1 -1 -1 63 63 63 64 63 -1 -1 -1 -1 -1 -1 -1 -1 -1 -1 -1 -1 -1 -1 -1 -1 -1 -1 -1 -1 -1 -1 63 63 -1 -1 -1 -1 -1 -1 -1 -1 -1 -1 -1 -1 -1 -1 -1 -1 -1 -1 -1 -1 -1 -1 -1 -1 -1 64 66 67 69 72 77 79 81 83 84 84 85 85 85 83 82 79 75 72 72 71 71 71 71 72 72 73 75 76 77 78 78 78 78 79 79 79 79 79 79 79 80 80 80 80 81 82 83 83 85 90 94 102 105 104 104 103 103 100 98 96 95 92 88 83 82 83 83 84 84 85 85 85 85 85 86 86 86 87 87 87 88 87 87 87 86 87 87 88 89 88 87 86 86 85 84 83 81 81 82 82 82 82 82 81 81 80 80 80 80 80 80 80 80 80 79 79 79 79 79 79 79 79 80 80 81 81 82 82 83 83 83 84 84 84 84 84 84 84 83 83 82 81 81 80 79 78 76 75 74 73
-1 -1 -1 -1 -1 -1 -1 -1 -1 -1 -1 -1 -1 -1 -1 -1 -1 -1 -1 -1 -1 -1 -1 -1 -1 -1 -1 -1 -1 -1 -1 -1 -1 64 68 67 70 72 73 71 69 68 66 65 64 63 -1 -1 -1 -1 -1 63 63 63 64 -1 -1 -1 -1 -1 -1 -1 -1 -1 -1 -1 -1 -1 -1 -1 -1 -1 -1 -1 -1 -1 -1 -1 -1 -1 -1 -1 -1 -1 -1 -1 -1 -1 -1 -1 -1 -1 -1 -1 -1 -1 -1 -1 -1 -1 -1 -1 -1 -1 -1 63 65 67 69 72 78 80 82 83 85 85 85 85 85 84 83 82 81 77 73 72 71 72 72 72 73 74 76 77 78 78 78 78 79 79 79 79 79 79 79 80 80 80 80 81 82 82 83 84 85 90 93 98 102 101 100 99 98 95 92 91 90 85 82 81 81 82 82 83 83 84 84 84 84 84 85 85 85 86 86 87 87 87 86 86 86 86 87 87 87 87 86 86 86 85 84 83 82 82 83 83 83 83 82 82 81 81 81 81 80 80 80 80 80 80 79 79 79 79 79 79 79 80 80 80 81 82 82 83 83 84 84 84 85 85 85 85 85 84 84 83 83 82 81 81 80 78 77 75 74 73
-1 -1 -1 -1 -1 -1 -1 -1 -1 -1 -1 -1 -1 -1 -1 -1 -1 -1 -1 -1 -1 -1 -1 -1 -1 -1 -1 -1 -1 -1 -1 -1 -1 63 66 66 66 71 72 71 70 69 68 66 64 63 -1 -1 -1 63 63 63 63 63 63 -1 -1 -1 -1 -1 -1 -1 -1 -1 -1 -1 -1 -1 -1 -1 -1 -1 -1 -1 -1 -1 -1 -1 -1 -1 -1 -1 -1 -1 -1 -1 -1 -1 -1 -1 -1 -1 -1 -1 -1 -1 -1 -1 -1 -1 -1 -1 -1 -1 -1 63 65 67 69 73 78 81 82 84 85 85 85 85 85 84 84 83 83 81 76 72 71 72 72 73 74 76 76 77 78 78 78 78 79 79 79 79 79 79 80 80 80 80 80 81 82 82 83 84 86 90 93 96 100 98 97 92 -1 -1 -1 81 81 81 81 -1 -1 81 81 82 82 82 83 83 83 83 83 84 84 85 85 86 86 86 86 86 86 86 86 86 86 86 86 85 85 85 84 84 83 83 83 83 83 83 82 82 81 81 81 81 81 80 80 80 80 80 80 79 79 79 79 80 80 80 80 81 82 82 83 84 84 84 85 85 85 85 85 85 85 85 85 84 84 83 82 81 81 79 77 75 74 73
-1 -1 -1 -1 -1 -1 -1 -1 -1 -1 -1 -1 -1 -1 -1 -1 -1 -1 -1 -1 -1 -1 -1 -1 -1 -1 -1 -1 -1 -1 -1 -1 -1 -1 66 67 66 70 72 71 71 70 70 67 65 63 -1 -1 63 63 63 63 63 63 63 -1 -1 -1 -1 -1 -1 -1 -1 -1 -1 -1 -1 -1 -1 -1 -1 -1 -1 -1 -1 -1 -1 -1 -1 -1 -1 -1 -1 -1 -1 -1 -1 -1 -1 -1 -1 -1 -1 -1 -1 -1 -1 -1 -1 -1 -1 -1 -1 -1 -1 63 65 66 69 73 79 81 83 84 86 86 86 86 86 85 84 84 84 82 79 73 72 72 73 75 76 76 77 77 78 78 78 79 79 79 79 79 79 80 80 80 80 80 80 81 82 83 84 85 87 90 92 95 98 96 88 85 -1 -1 -1 -1 -1 -1 -1 -1 -1 -1 80 80 80 80 80 81 81 81 81 81 82 83 84 85 85 85 86 86 86 86 86 86 85 85 85 85 85 85 84 84 83 83 83 83 83 83 83 82 82 82 82 81 81 81 80 80 80 80 80 79 79 79 80 80 80 80 81 81 82 83 83 84 85 85 85 86 86 86 86 86 86 86 86 85 85 84 83 82 81 79 77 75 74 73
-1 -1 -1 -1 -1 -1 -1 -1 -1 -1 -1 -1 -1 -1 -1 -1 -1 -1 -1 -1 -1 -1 -1 -1 -1 -1 -1 -1 -1 -1 -1 -1 -1 -1 64 65 66 67 69 68 68 67 67 65 64 -1 -1 -1 -1 -1 -1 -1 -1 -1 -1 -1 -1 -1 -1 -1 -1 -1 -1 -1 -1 -1 -1 -1 -1 -1 -1 -1 -1 -1 -1 -1 -1 -1 -1 -1 -1 -1 -1 -1 -1 -1 -1 -1 -1 -1 -1 -1 -1 -1 -1 -1 -1 -1 -1 -1 -1 -1 -1 -1 -1 63 65 66 69 73 79 81 83 84 86 86 86 86 86 85 85 84 84 83 82 78 73 75 76 76 76 77 77 78 78 78 78 79 79 79 79 79 79 80 80 80 80 80 80 81 82 82 83 83 84 88 90 92 94 91 87 84 -1 -1 -1 -1 -1 -1 -1 -1 -1 80 80 80 80 80 80 80 81 81 81 81 81 82 83 84 85 85 85 85 85 85 85 85 85 85 85 85 85 84 84 84 83 83 83 83 83 83 82 82 82 82 81 81 81 81 80 80 80 80 80 79 79 79 80 80 80 80 80 81 82 82 83 84 84 85 85 85 85 85 85 85 84 84 84 84 84 83 82 82 81 79 77 75 74 73
-1 -1 -1 -1 -1 -1 -1 -1 -1 -1 -1 -1 -1 -1 -1 -1 -1 -1 -1 -1 -1 -1 -1 -1 -1 -1 -1 -1 -1 -1 -1 -1 -1 -1 -1 63 64 65 66 66 65 65 65 64 63 -1 -1 -1 -1 -1 -1 -1 -1 -1 -1 -1 -1 -1 -1 -1 -1 -1 -1 -1 -1 -1 -1 -1 -1 -1 -1 -1 -1 -1 -1 -1 -1 -1 -1 -1 -1 -1 -1 -1 -1 -1 -1 -1 -1 -1 -1 -1 -1 -1 -1 -1 -1 -1 -1 -1 -1 -1 -1 -1 -1 63 65 66 69 73 80 82 83 84 86 86 86 86 86 86 85 85 84 84 84 84 83 79 78 77 77 77 77 78 78 78 78 79 79 79 79 79 79 79 80 80 80 80 80 80 81 81 82 82 83 86 88 89 90 88 86 83 -1 -1 -1 -1 -1 -1 -1 -1 80 80 80 80 80 80 80 80 80 81 81 81 81 82 83 83 84 84 84 84 85 85 85 85 85 85 85 85 84 84 84 83 83 83 83 83 83 82 82 82 82 81 81 81 81 81 80 80 80 80 80 80 79 79 80 80 80 80 80 80 81 82 82 83 84 84 84 83 83 82 82 81 80 80 80 80 81 81 81 81 81 79 77 76 74 74
-1 -1 -1 -1 -1 -1 -1 -1 -1 -1 -1 -1 -1 -1 -1 -1 -1 -1 -1 -1 -1 -1 -1 -1 -1 -1 -1 -1 -1 -1 -1 -1 -1 -1 -1 -1 63 63 64 64 63 63 63 -1 -1 -1 -1 -1 -1 -1 -1 -1 -1 -1 -1 -1 -1 -1 -1 -1 -1 -1 -1 -1 -1 -1 -1 -1 -1 -1 -1 -1 -1 -1 -1 -1 -1 -1 -1 -1 -1 -1 -1 -1 -1 -1 -1 -1 -1 -1 -1 -1 -1 -1 -1 -1 -1 -1 -1 -1 -1 -1 -1 -1 -1 63 64 66 69 74 81 82 83 85 86 86 86 86 87 86 86 85 85 85 85 86 86 85 81 78 77 77 78 78 78 78 78 79 79 79 79 79 79 79 79 80 80 80 80 80 81 81 81 81 82 85 87 87 88 87 85 82 -1 -1 -1 -1 -1 -1 -1 80 80 80 80 80 80 80 80 80 80 80 80 80 80 81 82 82 82 83 83 83 84 84 84 85 85 85 85 84 84 84 84 83 83 83 83 83 82 82 82 82 81 81 81 81 81 81 80 80 80 80 80 80 79 79 80 80 80 80 80 80 81 81 81 82 83 82 81 80 80 80 80 80 80 80 80 80 80 80 80 80 81 79 77 76 74 74
-1 -1 -1 -1 -1 -1 -1 -1 -1 -1 -1 -1 -1 -1 -1 -1 -1 -1 -1 -1 -1 -1 -1 -1 -1 -1 -1 -1 -1 -1 -1 -1 -1 -1 -1 -1 -1 -1 -1 -1 -1 -1 -1 -1 -1 -1 -1 -1 -1 -1 -1 -1 -1 -1 -1 -1 -1 -1 -1 -1 -1 -1 -1 -1 -1 -1 -1 -1 -1 -1 -1 -1 -1 -1 -1 -1 -1 -1 -1 -1 -1 -1 -1 -1 -1 -1 -1 -1 -1 -1 -1 -1 -1 -1 -1 -1 -1 -1 -1 -1 -1 -1 -1 -1 -1 63 64 66 69 74 81 82 83 85 86 86 86 87 87 86 86 86 86 86 87 87 88 87 85 80 78 78 78 78 78 78 78 79 79 79 79 79 79 79 79 80 80 80 80 80 80 80 81 81 81 84 85 86 87 86 84 81 -1 -1 -1 -1 -1 -1 80 80 80 80 80 80 80 80 80 80 80 80 80 80 80 80 80 80 80 81 81 82 82 83 84 84 85 85 84 84 84 84 83 83 83 83 82 82 82 82 82 82 81 81 81 81 81 81 81 80 80 80 80 80 79 79 80 80 80 80 80 80 80 80 80 80 80 80 80 80 80 80 79 79 79 79 79 79 79 79 80 80 81 79 77 76 74 74
-1 -1 -1 -1 -1 -1 -1 -1 -1 -1 -1 -1 -1 -1 -1 -1 -1 -1 -1 -1 -1 -1 -1 -1 -1 -1 -1 -1 -1 -1 -1 -1 -1 -1 -1 -1 -1 -1 -1 -1 -1 -1 -1 -1 -1 -1 -1 -1 -1 -1 -1 -1 -1 -1 -1 -1 -1 -1 -1 -1 -1 -1 -1 -1 -1 -1 -1 -1 -1 -1 -1 -1 -1 -1 -1 -1 -1 -1 -1 -1 -1 -1 -1 -1 -1 -1 -1 -1 -1 -1 -1 -1 -1 -1 -1 -1 -1 -1 -1 -1 -1 -1 -1 -1 -1 63 64 67 70 75 82 83 84 85 86 86 86 87 87 87 87 86 86 87 87 87 87 87 85 80 78 78 78 78 78 78 78 79 79 79 79 79 79 79 79 80 80 80 80 80 80 80 80 81 81 83 84 85 86 84 83 81 -1 -1 -1 -1 -1 80 80 80 80 80 80 80 80 80 80 80 80 80 80 80 81 80 80 80 -1 81 81 81 82 83 83 84 84 84 84 84 84 83 83 83 83 82 82 82 82 82 82 81 81 81 81 81 81 81 80 80 80 80 80 80 80 80 80 80 80 80 80 80 81 81 81 82 83 81 80 80 80 80 80 80 80 80 80 80 80 80 80 80 80 78 77 76 74 74
-1 -1 -1 -1 -1 -1 -1 -1 -1 -1 -1 -1 -1 -1 -1 -1 -1 -1 -1 -1 -1 -1 -1 -1 -1 -1 -1 -1 -1 -1 -1 -1 -1 -1 -1 -1 -1 -1 -1 -1 -1 -1 -1 -1 -1 -1 -1 -1 -1 -1 -1 -1 -1 -1 -1 -1 -1 -1 -1 -1 -1 -1 -1 -1 -1 -1 -1 -1 -1 -1 -1 -1 -1 -1 -1 -1 -1 -1 -1 -1 -1 -1 -1 -1 -1 -1 -1 -1 -1 -1 -1 -1 -1 -1 -1 -1 -1 -1 -1 -1 -1 -1 -1 -1 -1 63 64 68 72 77 83 84 84 85 86 86 86 86 87 87 87 87 87 87 87 87 87 86 84 80 78 78 78 78 78 79 79 79 79 79 79 79 79 79 79 80 80 80 80 80 80 80 80 80 81 82 83 84 84 83 82 80 80 -1 -1 -1 80 80 80 80 80 80 80 80 80 80 80 80 80 80 80 81 81 81 81 -1 -1 -1 -1 -1 -1 82 83 84 84 84 84 83 83 83 83 83 83 82 82 82 81 81 81 81 81 81 81 81 81 81 80 80 80 80 80 80 80 80 80 80 80 80 80 81 82 82 83 83 84 83 82 81 80 80 80 80 80 80 80 82 83 80 80 80 79 78 76 75 74 74
-1 -1 -1 -1 -1 -1 -1 -1 -1 -1 -1 -1 -1 -1 -1 -1 -1 -1 -1 -1 -1 -1 -1 -1 -1 -1 -1 -1 -1 -1 -1 -1 -1 -1 -1 -1 -1 -1 -1 -1 -1 -1 -1 -1 -1 -1 -1 -1 -1 -1 -1 -1 -1 -1 -1 -1 -1 -1 -1 -1 -1 -1 -1 -1 -1 -1 -1 -1 -1 -1 -1 -1 -1 -1 -1 -1 -1 -1 -1 -1 -1 -1 -1 -1 -1 -1 -1 -1 -1 -1 -1 -1 -1 -1 -1 -1 -1 -1 -1 -1 -1 -1 -1 -1 -1 63 65 70 74 79 84 84 85 85 86 86 86 86 87 87 87 88 88 88 88 87 87 86 84 80 78 78 78 78 79 79 79 79 79 79 79 79 79 79 79 80 80 80 80 80 80 80 80 80 80 81 81 82 82 81 80 80 80 80 -1 80 80 80 80 80 80 80 80 80 80 80 80 80 80 80 81 81 81 81 -1 -1 -1 -1 -1 -1 -1 -1 83 83 84 83 83 83 83 83 83 83 82 82 81 81 81 81 81 81 81 81 81 81 81 81 80 80 80 80 80 80 80 80 80 80 80 80 80 82 83 83 84 84 85 85 84 83 83 83 83 84 85 85 85 85 85 82 80 79 78 77 76 75 75 74
-1 -1 -1 -1 -1 -1 -1 -1 -1 -1 -1 -1 -1 -1 -1 -1 -1 -1 -1 -1 -1 -1 -1 -1 -1 -1 -1 -1 -1 -1 -1 -1 -1 -1 -1 -1 -1 -1 -1 -1 -1 -1 -1 -1 -1 -1 -1 -1 -1 -1 -1 -1 -1 -1 -1 -1 -1 -1 -1 -1 -1 -1 -1 -1 -1 -1 -1 63 63 63 63 -1 -1 -1 -1 -1 -1 -1 63 63 63 -1 -1 -1 -1 -1 -1 -1 -1 -1 -1 -1 -1 -1 -1 -1 -1 -1 -1 -1 -1 -1 -1 -1 -1 64 66 73 75 81 85 85 85 86 86 86 86 86 86 87 88 89 90 89 88 87 87 86 84 80 78 78 78 79 79 79 79 79 79 79 79 79 79 79 79 79 80 80 80 80 80 80 80 80 80 80 80 80 80 80 80 80 80 80 80 80 79 80 80 80 80 80 80 80 80 80 80 80 80 81 81 81 82 82 -1 -1 -1 -1 -1 -1 -1 -1 82 83 83 83 83 82 82 82 82 82 82 81 81 80 80 80 81 81 81 81 81 81 81 81 80 80 80 80 80 80 80 80 80 80 80 80 81 82 83 84 85 85 86 85 85 84 84 85 85 87 88 88 87 87 86 83 81 79 77 76 76 75 75 74
-1 -1 -1 -1 -1 -1 -1 -1 -1 -1 -1 -1 -1 -1 -1 -1 -1 -1 -1 -1 -1 -1 -1 -1 -1 -1 -1 -1 -1 -1 -1 -1 -1 -1 -1 -1 -1 -1 -1 -1 -1 -1 -1 -1 -1 -1 -1 -1 -1 -1 -1 -1 -1 -1 -1 -1 -1 -1 -1 -1 -1 -1 -1 -1 -1 -1 -1 63 63 63 63 -1 -1 -1 -1 -1 -1 63 64 64 64 63 63 -1 -1 -1 -1 -1 -1 -1 -1 -1 -1 -1 -1 -1 -1 -1 -1 -1 -1 -1 -1 -1 63 64 70 73 75 79 83 83 84 84 85 85 86 87 87 88 88 89 90 89 88 88 87 86 85 80 78 79 79 79 79 79 79 79 79 79 79 79 79 79 79 80 80 80 80 80 80 80 80 80 80 80 80 80 80 80 80 80 80 80 80 80 80 80 80 80 80 80 80 80 80 80 80 80 80 81 81 82 82 82 82 -1 82 -1 -1 -1 -1 -1 -1 82 83 82 82 82 82 82 82 81 81 80 80 80 80 80 80 81 81 81 81 81 81 80 80 80 80 80 80 80 80 80 80 80 80 80 81 82 83 84 85 86 86 86 86 86 85 86 87 88 89 88 88 87 87 84 81 79 77 76 76 75 75 74
-1 -1 -1 -1 -1 -1 -1 -1 -1 -1 -1 -1 -1 -1 -1 -1 -1 -1 -1 -1 -1 -1 -1 -1 -1 -1 -1 -1 -1 -1 -1 -1 -1 -1 -1 -1 -1 -1 -1 -1 -1 -1 -1 -1 -1 -1 -1 -1 -1 -1 -1 -1 -1 -1 -1 -1 -1 -1 -1 -1 -1 -1 -1 -1 -1 -1 -1 63 63 63 63 63 63 -1 -1 63 63 64 65 65 65 64 64 63 -1 -1 -1 -1 -1 -1 -1 -1 -1 -1 -1 -1 -1 -1 -1 -1 -1 -1 -1 -1 64 66 72 73 75 77 81 81 81 82 82 85 86 87 88 88 88 89 90 89 88 88 88 87 86 80 79 79 79 79 79 79 79 79 79 79 79 79 79 79 79 80 80 80 80 80 80 80 80 80 80 80 80 80 80 80 80 80 80 80 80 80 80 80 80 80 80 80 80 80 80 80 80 80 80 81 81 82 82 82 82 -1 82 -1 -1 -1 -1 -1 82 82 82 82 82 82 81 81 81 80 80 80 80 80 80 80 80 80 81 80 80 80 80 80 80 80 80 80 80 80 80 80 80 80 80 81 82 82 83 84 85 86 87 87 87 87 87 88 88 89 89 89 88 88 87 84 81 79 77 76 76 75 75 75
-1 -1 -1 -1 -1 -1 -1 -1 -1 -1 -1 -1 -1 -1 -1 -1 -1 -1 -1 -1 -1 -1 -1 -1 -1 -1 -1 -1 -1 -1 -1 -1 -1 -1 -1 -1 -1 -1 -1 -1 -1 -1 -1 -1 -1 -1 -1 -1 -1 -1 -1 -1 -1 -1 -1 -1 -1 -1 -1 -1 -1 -1 -1 -1 -1 -1 -1 63 63 63 63 63 63 63 64 64 65 66 67 67 66 66 66 64 63 -1 -1 -1 -1 -1 -1 -1 -1 -1 -1 -1 -1 -1 -1 -1 -1 -1 -1 63 64 69 75 74 73 72 72 75 77 78 78 83 86 87 88 88 89 89 90 89 89 89 88 88 87 80 79 79 79 79 79 79 79 79 79 79 79 79 79 79 79 80 80 80 80 80 80 80 80 80 80 80 80 80 80 80 80 80 80 80 80 80 80 80 80 80 80 80 80 80 80 80 80 80 81 81 81 82 82 82 82 82 82 -1 -1 -1 -1 -1 82 82 82 82 81 81 81 81 80 80 80 80 80 80 80 80 80 80 80 80 80 80 80 80 80 80 80 80 80 80 80 80 80 80 81 81 82 82 83 84 85 86 87 87 88 88 89 89 89 89 90 89 89 88 87 84 81 79 77 77 76 76 75 75
-1 -1 -1 -1 -1 -1 -1 -1 -1 -1 -1 -1 -1 -1 -1 -1 -1 -1 -1 -1 -1 -1 -1 -1 -1 -1 -1 -1 -1 -1 -1 -1 -1 -1 -1 -1 -1 -1 -1 -1 -1 -1 -1 -1 -1 -1 -1 -1 -1 -1 -1 -1 -1 -1 -1 -1 -1 -1 -1 -1 -1 -1 -1 -1 -1 -1 -1 -1 63 63 63 64 64 65 66 67 68 68 69 69 69 68 68 67 66 65 64 63 -1 -1 -1 -1 -1 -1 -1 -1 -1 -1 -1 -1 -1 -1 -1 63 67 81 81 81 72 72 71 72 73 75 76 80 85 88 89 89 89 89 89 90 90 90 90 90 89 89 79 79 79 79 79 79 79 79 79 79 79 79 79 79 80 80 80 80 80 80 81 80 80 80 80 80 80 80 80 80 80 80 80 80 80 80 80 80 80 80 80 80 80 80 80 80 80 81 81 81 81 82 82 82 83 83 83 83 83 83 82 82 82 82 81 81 81 81 81 80 80 80 80 80 80 80 80 80 80 80 80 80 80 80 80 80 80 79 79 80 80 80 80 80 80 80 81 82 82 82 83 84 85 86 87 88 89 89 90 90 90 90 90 89 89 88 88 84 81 80 78 77 76 76 75 75
-1 -1 -1 -1 -1 -1 -1 -1 -1 -1 -1 -1 -1 -1 -1 -1 -1 -1 -1 -1 -1 -1 -1 -1 -1 -1 -1 -1 -1 -1 -1 -1 -1 -1 -1 -1 -1 -1 -1 -1 -1 -1 -1 -1 -1 -1 -1 -1 -1 -1 -1 -1 -1 -1 -1 -1 -1 -1 -1 -1 -1 -1 -1 -1 -1 -1 -1 -1 -1 63 63 64 64 65 66 67 68 69 69 70 70 70 70 69 69 68 67 64 64 63 -1 -1 -1 -1 -1 -1 -1 -1 -1 -1 -1 -1 -1 64 71 81 82 81 73 72 72 73 74 76 76 78 80 89 90 90 90 90 90 90 90 90 91 90 90 90 90 79 79 79 79 79 79 79 79 79 80 80 80 80 80 80 81 81 81 81 81 81 81 80 80 80 80 80 80 80 80 80 80 80 80 80 80 80 80 80 80 80 80 80 80 80 80 81 81 81 82 82 82 83 83 83 83 83 83 83 83 82 82 82 81 81 81 80 80 80 80 80 80 80 80 80 80 80 80 80 80 80 80 80 80 80 80 79 79 80 80 80 80 80 80 80 81 81 82 82 83 84 85 86 87 88 89 89 90 90 90 90 90 90 89 89 88 85 83 81 79 79 78 77 76 76
-1 -1 -1 -1 -1 -1 -1 -1 -1 -1 -1 -1 -1 -1 -1 -1 -1 -1 -1 -1 -1 -1 -1 -1 -1 -1 -1 -1 -1 -1 -1 -1 -1 -1 -1 -1 -1 -1 -1 -1 -1 -1 -1 -1 -1 -1 -1 -1 -1 -1 -1 -1 -1 -1 -1 -1 -1 -1 -1 -1 -1 -1 -1 -1 -1 -1 -1 -1 -1 -1 63 64 64 64 66 67 68 69 70 70 71 72 72 72 72 71 71 68 66 64 64 -1 -1 -1 -1 -1 -1 -1 -1 -1 -1 -1 74 76 81 81 82 81 75 73 73 74 75 76 76 78 89 89 90 90 90 90 90 91 91 91 91 91 91 91 91 79 79 79 80 79 79 79 79 80 80 80 81 81 81 82 82 82 82 81 81 81 81 81 81 81 80 80 80 80 80 80 80 80 80 80 80 80 80 80 80 80 80 80 80 80 81 81 81 81 82 82 82 83 83 83 84 83 83 83 83 83 82 82 81 81 81 80 80 80 80 80 80 79 79 79 79 79 79 80 80 80 80 79 79 79 79 79 79 80 80 80 80 80 80 80 80 81 82 82 83 84 85 86 87 88 89 89 90 90 90 90 90 90 90 89 89 86 84 82 81 80 79 78 77 77
-1 -1 -1 -1 -1 -1 -1 -1 -1 -1 -1 -1 -1 -1 -1 -1 -1 -1 -1 -1 -1 -1 -1 -1 -1 -1 -1 -1 -1 -1 -1 -1 -1 -1 -1 -1 -1 -1 -1 -1 -1 -1 -1 -1 -1 -1 -1 -1 -1 -1 -1 -1 -1 -1 -1 -1 -1 -1 -1 -1 -1 -1 -1 -1 -1 -1 -1 -1 -1 -1 63 63 64 64 66 67 69 70 70 72 73 74 75 75 75 75 74 73 70 69 67 66 65 64 63 63 64 65 67 64 73 76 78 81 81 82 82 81 76 74 74 75 76 76 89 89 90 90 90 90 91 91 91 91 91 91 91 91 92 92 92 89 79 80 80 80 80 79 79 80 80 81 82 82 82 83 83 83 82 82 81 81 81 81 81 81 80 80 80 80 80 80 80 80 80 80 80 80 80 80 80 80 80 80 80 80 81 81 81 81 82 82 83 83 83 84 84 84 84 84 84 83 83 82 82 81 80 80 80 80 80 79 79 79 79 79 79 79 79 79 79 79 79 79 79 79 79 79 79 80 80 80 80 80 80 80 80 81 82 82 83 84 85 86 87 88 89 89 90 90 90 90 90 90 90 90 89 88 86 84 83 81 80 80 79 77
-1 -1 -1 -1 -1 -1 -1 -1 -1 -1 -1 -1 -1 -1 -1 -1 -1 -1 -1 -1 -1 -1 -1 -1 -1 -1 -1 -1 -1 -1 -1 -1 -1 -1 -1 -1 -1 -1 -1 -1 -1 -1 -1 -1 -1 -1 -1 -1 -1 -1 -1 -1 -1 -1 -1 -1 -1 -1 -1 -1 -1 -1 -1 -1 -1 -1 -1 -1 -1 -1 63 63 64 64 66 68 69 70 71 73 75 76 77 77 77 77 77 76 74 72 71 71 70 70 70 72 73 75 76 77 78 79 81 81 82 82 82 81 77 75 75 75 76 76 91 91 91 91 91 91 91 91 91 91 91 91 91 92 92 93 93 91 80 80 80 80 80 80 80 80 81 82 83 83 83 83 84 83 83 82 81 81 81 81 81 81 81 80 80 80 80 80 80 80 80 80 80 80 80 80 80 80 80 80 80 80 81 81 81 81 82 82 83 83 83 84 84 84 84 85 85 84 83 82 82 81 80 80 80 80 79 79 79 79 79 79 79 79 79 79 79 79 79 79 79 79 79 79 79 80 80 80 80 80 80 80 80 81 81 82 83 84 85 86 87 88 89 89 90 90 90 90 91 90 90 90 90 89 88 86 85 84 82 81 80 78
-1 -1 -1 -1 -1 -1 -1 -1 -1 -1 -1 -1 -1 -1 -1 -1 -1 -1 -1 -1 -1 -1 -1 -1 -1 -1 -1 -1 -1 -1 -1 -1 -1 -1 -1 -1 -1 -1 -1 -1 -1 -1 -1 -1 -1 -1 -1 -1 -1 -1 -1 -1 -1 -1 -1 -1 -1 -1 -1 -1 -1 -1 -1 -1 -1 -1 -1 -1 -1 -1 -1 -1 63 63 64 65 67 69 71 73 74 76 77 77 78 78 78 77 76 74 73 73 73 73 74 75 76 77 77 78 79 79 80 81 81 81 81 77 76 75 75 76 76 77 91 91 91 91 91 91 91 92 92 92 92 92 92 92 92 93 93 92 90 80 80 80 80 80 80 80 81 82 82 83 83 83 83 83 83 82 81 81 81 81 81 81 81 80 80 80 80 80 80 80 80 80 80 80 80 80 80 80 80 80 80 80 81 81 81 81 82 82 83 83 84 84 85 85 85 85 85 84 83 83 82 81 80 80 80 80 80 79 79 79 79 79 79 79 79 79 79 79 79 79 79 79 79 79 79 80 80 80 80 80 80 80 80 80 81 82 83 84 85 86 87 88 89 89 90 90 90 91 91 91 90 90 90 89 88 87 86 84 83 82 81 79
-1 -1 -1 -1 -1 -1 -1 -1 -1 -1 -1 -1 -1 -1 -1 -1 -1 -1 -1 -1 -1 -1 -1 -1 -1 -1 -1 -1 -1 -1 -1 -1 -1 -1 -1 -1 -1 -1 -1 -1 -1 -1 -1 -1 -1 -1 -1 -1 -1 -1 -1 -1 -1 -1 -1 -1 -1 -1 -1 -1 -1 -1 -1 -1 -1 -1 -1 -1 -1 -1 -1 -1 -1 63 64 64 65 67 70 73 74 76 77 78 78 78 79 78 77 77 76 76 77 77 77 78 79 79 80 80 80 80 80 79 78 76 72 75 75 76 76 76 77 77 91 91 92 92 92 92 92 92 92 92 92 92 92 92 93 93 93 92 91 90 89 80 80 80 80 80 80 81 82 82 82 82 83 82 82 82 81 81 81 81 81 81 80 80 80 80 80 80 80 80 80 80 80 80 80 80 80 80 80 80 80 80 81 81 81 82 82 83 83 83 84 85 85 85 85 85 85 84 84 83 83 82 81 80 80 80 80 79 79 79 79 79 79 79 79 79 79 79 79 79 79 79 79 79 79 80 80 80 80 80 80 80 80 80 81 82 82 83 84 85 86 87 88 89 90 90 90 91 91 91 91 90 90 89 89 88 86 85 84 82 81 79
-1 -1 -1 -1 -1 -1 -1 -1 -1 -1 -1 -1 -1 -1 -1 -1 -1 -1 -1 -1 -1 -1 -1 -1 -1 -1 -1 -1 -1 -1 -1 -1 -1 -1 -1 -1 -1 -1 -1 -1 -1 -1 -1 -1 -1 -1 -1 -1 -1 -1 -1 -1 -1 -1 -1 -1 -1 -1 -1 -1 -1 -1 -1 -1 -1 -1 -1 -1 -1 -1 -1 -1 -1 -1 63 64 64 66 70 73 74 76 77 78 78 79 79 79 79 79 79 79 80 80 80 81 81 81 81 81 80 80 79 78 76 74 72 74 75 76 76 77 77 78 92 92 92 92 92 92 92 92 92 92 93 93 93 93 93 93 94 93 93 92 92 80 80 80 80 80 80 80 81 81 81 82 82 82 82 82 81 81 81 81 81 81 80 80 80 80 80 80 80 80 80 80 80 80 80 80 80 80 80 80 80 80 81 81 82 82 82 83 83 84 84 85 86 86 86 85 85 85 84 83 83 82 81 80 80 80 80 79 79 79 79 79 79 79 79 79 79 79 79 79 79 79 79 79 79 80 80 80 80 80 80 80 80 80 81 81 82 83 84 85 86 87 88 89 90 90 90 91 91 91 91 91 90 90 89 88 87 86 84 83 82 80
-1 -1 -1 -1 -1 -1 -1 -1 -1 -1 -1 -1 -1 -1 -1 -1 -1 -1 -1 -1 -1 -1 -1 -1 -1 -1 -1 -1 -1 -1 -1 -1 -1 -1 -1 -1 -1 -1 -1 -1 -1 -1 -1 -1 -1 -1 -1 -1 -1 -1 -1 -1 -1 -1 -1 -1 -1 -1 -1 -1 -1 -1 -1 -1 -1 -1 -1 -1 -1 -1 -1 -1 -1 -1 -1 63 64 64 69 73 74 76 78 78 79 79 80 80 81 81 81 82 82 82 82 82 82 82 82 82 81 80 79 77 75 73 72 73 75 76 77 77 78 78 92 92 93 93 93 93 93 93 93 93 93 93 93 93 93 94 94 94 94 94 94 90 80 80 80 80 80 80 80 80 80 81 81 81 81 81 81 81 81 81 81 80 80 80 80 80 80 80 80 80 80 80 80 80 80 80 80 80 80 80 80 80 81 81 82 82 82 83 83 84 85 85 86 86 86 86 86 85 84 84 83 82 81 80 80 80 80 79 79 79 79 79 79 79 79 79 79 79 79 79 79 79 79 79 79 80 80 80 80 80 80 80 80 80 80 81 82 83 84 85 86 87 88 89 89 90 90 91 91 91 91 91 91 90 89 89 88 86 85 84 83 80
-1 -1 -1 -1 -1 -1 -1 -1 -1 -1 -1 -1 -1 -1 -1 -1 -1 -1 -1 -1 -1 -1 -1 -1 -1 -1 -1 -1 -1 -1 -1 -1 -1 -1 -1 -1 -1 -1 -1 -1 -1 -1 -1 -1 -1 -1 -1 -1 -1 -1 -1 -1 -1 -1 -1 -1 -1 -1 -1 -1 -1 -1 -1 -1 -1 -1 -1 -1 -1 -1 -1 -1 -1 -1 -1 -1 -1 63 64 69 73 74 76 77 78 79 79 80 81 81 82 82 82 83 83 83 83 83 83 82 81 81 80 79 78 77 76 76 77 77 77 78 78 89 93 93 93 93 93 93 93 93 93 93 94 94 94 94 94 94 94 94 94 94 93 90 80 80 80 80 80 80 80 80 81 81 81 81 82 82 82 82 81 81 80 80 80 80 80 80 80 80 80 80 80 80 80 80 80 80 80 80 80 80 80 81 81 82 82 83 83 83 84 84 85 86 86 86 86 86 86 85 84 84 83 82 81 80 80 80 80 80 79 79 79 79 79 79 79 79 79 79 79 79 79 79 79 79 79 80 80 80 80 80 80 80 80 80 81 81 82 83 84 85 86 87 88 89 89 90 90 91 91 91 91 91 91 90 89 89 88 86 85 84 83 80
-1 -1 -1 -1 -1 -1 -1 -1 -1 -1 -1 -1 -1 -1 -1 -1 -1 -1 -1 -1 -1 -1 -1 -1 -1 -1 -1 -1 -1 -1 -1 -1 -1 -1 -1 -1 -1 -1 -1 -1 -1 -1 -1 -1 -1 -1 -1 -1 -1 -1 -1 -1 -1 -1 -1 -1 -1 -1 -1 -1 -1 -1 -1 -1 -1 -1 -1 -1 -1 -1 -1 -1 -1 -1 -1 -1 -1 -1 64 66 70 73 75 76 77 78 79 80 81 82 82 83 83 83 84 84 84 83 83 83 82 82 81 81 81 80 80 79 78 78 77 78 78 91 93 93 93 94 94 94 94 94 94 94 94 94 94 94 94 94 94 94 94 93 93 90 80 80 80 80 80 80 80 81 81 81 81 82 82 82 83 82 81 81 80 80 80 80 80 80 80 80 80 80 80 80 80 80 80 80 81 81 81 81 81 81 82 82 83 83 83 84 84 85 85 86 86 86 86 86 86 85 84 83 83 82 81 80 80 80 80 80 79 79 79 79 79 79 79 79 79 79 79 79 79 79 79 79 80 80 80 80 80 80 80 80 80 80 81 81 82 83 83 84 85 86 87 88 89 89 90 90 91 91 90 90 90 90 89 89 88 87 85 84 83 81
-1 -1 -1 -1 -1 -1 -1 -1 -1 -1 -1 -1 -1 -1 -1 -1 -1 -1 -1 -1 -1 -1 -1 -1 -1 -1 -1 -1 -1 -1 -1 -1 -1 -1 -1 -1 -1 -1 -1 -1 -1 -1 -1 -1 -1 -1 -1 -1 -1 -1 -1 -1 -1 -1 -1 -1 -1 -1 -1 -1 -1 -1 -1 -1 -1 -1 -1 -1 -1 -1 -1 -1 -1 -1 -1 -1 -1 -1 63 64 68 72 74 75 76 77 79 80 81 82 83 83 84 84 85 84 84 84 84 83 83 82 82 82 82 82 82 81 80 78 77 78 90 92 94 94 94 94 94 94 94 94 95 95 95 95 95 95 95 94 94 94 93 93 93 89 80 80 80 80 80 80 80 81 81 81 82 82 82 83 83 82 82 81 80 80 80 80 80 80 80 80 80 80 80 80 80 80 80 81 81 81 81 81 81 82 82 83 83 84 84 84 85 85 86 86 87 86 86 86 86 85 84 83 83 82 81 80 80 80 80 80 80 80 80 79 79 79 79 79 79 79 79 79 79 80 80 80 80 80 80 80 80 80 80 80 80 80 81 81 82 82 83 84 85 86 87 88 89 89 90 90 90 90 90 90 90 90 89 89 88 87 85 84 83 81
-1 -1 -1 -1 -1 -1 -1 -1 -1 -1 -1 -1 -1 -1 -1 -1 -1 -1 -1 -1 -1 -1 -1 -1 -1 -1 -1 -1 -1 -1 -1 -1 -1 -1 -1 -1 -1 -1 -1 -1 -1 -1 -1 -1 -1 -1 -1 -1 -1 -1 -1 -1 -1 -1 -1 -1 -1 -1 -1 -1 -1 -1 -1 -1 -1 -1 -1 -1 -1 -1 -1 -1 -1 -1 -1 -1 -1 -1 -1 63 66 70 73 74 76 77 78 80 81 83 84 84 85 85 85 85 85 85 85 84 83 83 83 83 83 84 84 83 81 79 78 91 93 94 94 94 94 94 94 95 95 95 95 95 95 96 96 95 95 94 94 94 93 93 93 89 81 80 80 80 80 80 81 81 81 82 82 82 83 83 83 83 82 81 80 80 80 80 80 79 79 79 -1 80 80 80 80 80 80 81 81 82 82 82 82 82 83 83 84 84 84 85 85 86 86 86 87 86 86 86 85 85 84 83 82 82 81 80 80 80 80 80 80 80 80 80 80 80 79 79 79 80 80 80 80 80 80 80 80 80 80 80 80 80 80 80 80 81 81 81 82 82 83 84 85 86 87 88 89 89 89 90 90 90 90 90 90 90 89 89 88 87 86 84 83 81
-1 -1 -1 -1 -1 -1 -1 -1 -1 -1 -1 -1 -1 -1 -1 -1 -1 -1 -1 -1 -1 -1 -1 -1 -1 -1 -1 -1 -1 -1 -1 -1 -1 -1 -1 -1 -1 -1 -1 -1 -1 -1 -1 -1 -1 -1 -1 -1 -1 -1 -1 -1 -1 -1 -1 -1 -1 -1 -1 -1 -1 -1 -1 -1 -1 -1 -1 -1 -1 -1 -1 -1 -1 -1 -1 -1 -1 -1 -1 -1 63 66 70 72 74 75 77 78 80 82 83 84 84 84 85 84 84 83 83 83 83 83 83 83 83 84 84 84 82 80 79 89 91 93 94 94 94 94 95 95 95 95 95 95 95 95 95 95 95 94 94 93 93 93 92 89 84 82 81 81 81 80 80 80 81 81 81 81 82 82 82 82 81 80 80 80 80 80 79 79 79 -1 -1 -1 -1 80 80 80 80 81 81 82 82 82 82 83 83 84 84 85 85 85 85 86 86 86 87 86 86 86 85 84 83 83 82 81 80 80 80 80 80 80 80 80 80 80 80 80 80 80 80 80 80 80 80 80 80 80 80 80 80 80 80 80 80 80 81 81 81 82 82 83 83 84 85 86 87 88 88 89 89 89 90 90 90 90 90 89 89 88 87 86 84 83 82 80
-1 -1 -1 -1 -1 -1 -1 -1 -1 -1 -1 -1 -1 -1 -1 -1 -1 -1 -1 -1 -1 -1 -1 -1 -1 -1 -1 -1 -1 -1 -1 -1 -1 -1 -1 -1 -1 -1 -1 -1 -1 -1 -1 -1 -1 -1 -1 -1 -1 -1 -1 -1 -1 -1 -1 -1 -1 -1 -1 -1 -1 -1 -1 -1 -1 -1 -1 -1 -1 -1 -1 -1 -1 -1 -1 -1 -1 -1 -1 -1 -1 64 67 69 71 73 75 77 78 81 83 83 84 84 84 83 82 82 81 82 82 82 83 83 83 84 84 84 83 81 79 80 90 92 94 94 94 95 95 95 95 95 95 95 95 95 95 95 94 94 93 93 93 92 92 88 85 84 83 82 82 81 80 80 80 80 80 80 81 81 81 80 80 80 80 80 80 80 79 79 -1 -1 -1 -1 -1 -1 80 80 80 81 81 81 82 82 83 83 84 84 85 85 85 86 86 86 86 86 86 86 86 85 85 84 83 82 82 81 80 80 80 80 80 80 80 80 80 80 80 80 80 80 80 80 80 80 80 80 80 80 80 80 80 80 80 80 80 81 81 81 82 82 82 83 84 84 85 86 86 87 88 89 89 89 89 89 89 89 89 89 88 87 87 85 83 81 80 78
-1 -1 -1 -1 -1 -1 -1 -1 -1 -1 -1 -1 -1 -1 -1 -1 -1 -1 -1 -1 -1 -1 -1 -1 -1 -1 -1 -1 -1 -1 -1 -1 -1 -1 -1 -1 -1 -1 -1 -1 -1 -1 -1 -1 -1 -1 -1 -1 -1 -1 -1 -1 -1 -1 -1 -1 -1 -1 -1 -1 -1 -1 -1 -1 -1 -1 -1 -1 -1 -1 -1 -1 -1 -1 -1 -1 -1 -1 -1 -1 -1 -1 64 66 68 71 74 75 77 80 83 83 83 83 83 82 81 79 78 81 81 82 83 83 83 84 84 84 83 83 81 80 89 92 93 94 94 95 95 95 95 95 95 95 95 95 95 94 94 94 93 93 92 92 91 88 86 85 84 83 82 81 80 80 80 80 80 80 80 80 80 80 80 80 80 80 80 80 79 79 -1 -1 -1 -1 -1 -1 -1 -1 -1 79 81 81 82 82 83 83 84 85 85 85 86 86 86 86 86 86 86 86 85 85 85 84 83 82 81 81 80 80 80 80 80 80 80 80 80 80 80 80 80 80 80 80 80 80 80 80 80 80 80 80 80 80 80 80 81 81 82 82 82 82 83 83 84 84 85 86 86 87 88 88 89 89 89 89 89 89 89 88 87 87 86 83 81 80 78 77
-1 -1 -1 -1 -1 -1 -1 -1 -1 -1 -1 -1 -1 -1 -1 -1 -1 -1 -1 -1 -1 -1 -1 -1 -1 -1 -1 -1 -1 -1 -1 -1 -1 -1 -1 -1 -1 -1 -1 -1 -1 -1 -1 -1 -1 -1 -1 -1 -1 -1 -1 -1 -1 -1 -1 -1 -1 -1 -1 -1 -1 -1 -1 -1 -1 -1 -1 -1 -1 -1 -1 -1 -1 -1 -1 -1 -1 -1 -1 -1 -1 -1 63 64 64 66 72 74 75 78 82 82 82 82 82 80 78 76 75 78 81 82 82 83 83 84 84 84 84 83 83 83 85 91 93 93 94 95 95 95 95 95 95 95 95 95 95 94 94 93 93 92 92 91 90 88 86 85 84 84 83 81 80 80 80 80 80 80 80 80 79 80 80 80 80 80 80 80 80 79 -1 -1 -1 -1 -1 -1 -1 -1 -1 -1 79 81 82 83 83 84 84 85 86 86 86 86 87 86 86 86 86 86 85 85 84 83 83 82 81 80 80 80 80 80 80 80 80 80 80 80 80 80 80 80 80 80 80 80 80 80 80 80 80 80 80 80 80 81 81 82 82 82 83 83 83 84 84 84 85 85 86 87 88 88 88 89 89 89 89 89 88 87 87 86 85 82 80 79 76 76
-1 -1 -1 -1 -1 -1 -1 -1 -1 -1 -1 -1 -1 -1 -1 -1 -1 -1 -1 -1 -1 -1 -1 -1 -1 -1 -1 -1 -1 -1 -1 -1 -1 -1 -1 -1 -1 -1 -1 -1 -1 -1 -1 -1 -1 -1 -1 -1 -1 -1 -1 -1 -1 -1 -1 -1 -1 -1 -1 -1 -1 -1 -1 -1 -1 -1 -1 -1 -1 -1 -1 -1 -1 -1 -1 -1 -1 -1 -1 -1 -1 -1 -1 63 64 64 65 69 72 74 75 75 75 75 75 75 75 75 75 77 79 80 81 82 82 83 83 83 83 82 82 82 81 80 90 91 91 92 92 92 92 92 92 92 93 94 94 94 93 93 93 92 92 91 90 88 86 85 84 84 83 82 81 80 80 80 80 80 80 80 79 79 79 80 80 80 80 80 80 80 79 -1 -1 -1 -1 -1 -1 -1 -1 -1 -1 81 82 83 83 84 84 85 86 86 86 86 87 87 86 86 86 86 85 85 84 83 82 82 81 80 80 80 80 80 80 80 80 80 80 80 80 80 80 80 80 80 80 80 80 80 81 81 82 82 82 82 82 82 82 82 82 82 83 83 83 83 84 84 84 85 86 86 87 88 88 89 89 89 89 88 88 87 85 84 83 81 80 78 76 76
-1 -1 -1 -1 -1 -1 -1 -1 -1 -1 -1 -1 -1 -1 -1 -1 -1 -1 -1 -1 -1 -1 -1 -1 -1 -1 -1 -1 -1 -1 -1 -1 -1 -1 -1 -1 -1 -1 -1 -1 -1 -1 -1 -1 -1 -1 -1 -1 -1 -1 -1 -1 -1 -1 -1 -1 -1 -1 -1 -1 -1 -1 -1 -1 -1 -1 -1 -1 -1 -1 -1 -1 -1 -1 -1 -1 -1 -1 -1 -1 -1 -1 -1 -1 63 63 64 65 68 70 71 71 71 71 71 72 73 74 75 76 78 79 80 80 81 81 82 81 81 81 81 80 80 80 80 80 89 90 90 90 89 88 87 89 91 92 94 94 93 93 92 92 91 91 90 88 87 86 85 84 84 83 83 82 82 81 80 80 80 80 79 79 79 79 79 79 79 79 79 79 79 79 79 79 -1 -1 -1 -1 -1 -1 -1 81 82 83 83 84 84 85 86 86 86 86 87 87 86 86 86 86 85 84 84 83 82 81 81 80 80 80 80 80 80 80 80 80 80 80 80 80 80 80 80 80 80 80 80 81 82 83 83 83 83 83 83 83 83 83 82 82 83 83 83 83 84 84 84 85 85 86 87 87 88 88 89 89 88 88 88 86 84 83 81 80 79 78 76 76
-1 -1 -1 -1 -1 -1 -1 -1 -1 -1 -1 -1 -1 -1 -1 -1 -1 -1 -1 -1 -1 -1 -1 -1 -1 -1 -1 -1 -1 -1 -1 -1 -1 -1 -1 -1 -1 -1 -1 -1 -1 -1 -1 -1 -1 -1 -1 -1 -1 -1 -1 -1 -1 -1 -1 -1 -1 -1 -1 -1 -1 -1 -1 -1 -1 -1 -1 -1 -1 -1 -1 -1 -1 -1 -1 -1 -1 -1 -1 -1 -1 -1 -1 -1 -1 63 63 64 66 68 69 70 70 70 70 71 72 73 74 76 77 78 79 79 79 80 80 80 80 80 80 80 80 80 80 80 80 80 89 80 80 80 81 86 89 91 94 93 93 92 92 92 91 90 90 88 87 86 85 85 85 85 85 84 83 82 81 80 80 80 79 79 79 79 79 79 79 79 79 79 79 79 79 -1 -1 -1 -1 -1 -1 -1 -1 81 82 83 83 84 85 85 86 86 86 87 87 87 87 86 86 86 85 84 83 83 82 81 80 80 80 80 80 80 80 80 80 80 80 80 80 80 80 80 80 80 80 80 80 82 83 84 84 84 84 84 84 84 84 83 82 83 83 83 83 83 83 84 84 85 85 86 87 87 88 88 89 88 88 88 88 85 83 81 80 79 78 77 77 76
-1 -1 -1 -1 -1 -1 -1 -1 -1 -1 -1 -1 -1 -1 -1 -1 -1 -1 -1 -1 -1 -1 -1 -1 -1 -1 -1 -1 -1 -1 -1 -1 -1 -1 -1 -1 -1 -1 -1 -1 -1 -1 -1 -1 -1 -1 -1 -1 -1 -1 -1 -1 -1 -1 -1 -1 -1 -1 -1 -1 -1 -1 -1 -1 -1 -1 -1 -1 -1 -1 -1 -1 -1 -1 -1 -1 -1 -1 -1 -1 -1 -1 -1 -1 -1 -1 63 64 65 67 68 69 69 70 70 71 72 73 74 75 76 77 78 78 79 79 79 79 79 80 80 80 80 80 80 80 80 80 80 80 79 79 79 81 86 90 93 93 93 92 92 91 91 90 90 88 87 87 86 86 86 86 86 85 84 83 82 81 80 80 79 79 79 79 79 79 79 79 79 79 79 79 79 -1 -1 -1 -1 -1 -1 -1 79 81 82 83 83 84 85 85 86 86 86 87 87 87 87 87 86 85 85 84 83 82 82 81 80 80 80 80 80 80 80 80 80 80 80 80 80 80 80 80 80 80 80 80 81 83 84 85 85 85 85 85 85 85 84 83 83 83 83 83 83 83 83 83 84 84 85 85 86 87 87 88 88 88 88 88 87 85 82 80 79 78 78 77 77 76
-1 -1 -1 -1 -1 -1 -1 -1 -1 -1 -1 -1 -1 -1 -1 -1 -1 -1 -1 -1 -1 -1 -1 -1 -1 -1 -1 -1 -1 -1 -1 -1 -1 -1 -1 -1 -1 -1 -1 -1 -1 -1 -1 -1 -1 -1 -1 -1 -1 -1 -1 -1 -1 -1 -1 -1 -1 -1 -1 -1 -1 -1 -1 -1 -1 -1 -1 -1 -1 -1 -1 -1 -1 -1 -1 -1 -1 -1 -1 -1 -1 -1 -1 -1 -1 -1 63 64 64 66 68 69 69 70 70 71 72 74 75 76 77 77 78 78 79 79 79 79 80 80 80 80 80 80 80 80 80 80 80 80 79 79 79 80 83 86 88 89 89 90 91 90 90 89 89 88 87 86 86 86 86 86 86 85 85 84 83 83 82 81 80 80 80 80 80 79 79 79 79 79 79 -1 -1 -1 79 79 -1 -1 -1 79 81 81 82 83 83 84 84 85 85 86 86 86 87 87 86 86 86 85 84 84 83 82 81 80 80 80 80 80 80 80 80 80 80 80 80 80 80 80 80 80 80 80 80 81 81 83 84 85 85 85 85 85 85 85 84 84 83 83 83 83 83 83 83 83 84 84 85 85 86 87 87 88 88 88 88 88 88 85 83 81 79 78 78 77 77 76
-1 -1 -1 -1 -1 -1 -1 -1 -1 -1 -1 -1 -1 -1 -1 -1 -1 -1 -1 -1 -1 -1 -1 -1 -1 -1 -1 -1 -1 -1 -1 -1 -1 -1 -1 -1 -1 -1 -1 -1 -1 -1 -1 -1 -1 -1 -1 -1 -1 -1 -1 -1 -1 -1 -1 -1 -1 -1 -1 -1 -1 -1 -1 -1 -1 -1 -1 -1 -1 -1 -1 -1 -1 -1 -1 -1 -1 -1 -1 -1 -1 -1 -1 -1 -1 -1 63 63 64 66 67 68 69 70 70 71 73 74 75 76 77 78 78 79 79 79 80 80 80 80 80 80 80 80 80 80 80 80 80 80 80 79 79 80 81 83 84 86 87 88 90 89 89 89 88 88 87 86 86 86 86 86 86 85 85 85 84 84 84 83 83 82 81 80 80 80 80 79 79 79 79 -1 -1 -1 79 81 82 82 82 81 81 81 82 83 83 84 84 85 85 85 86 86 87 87 86 86 86 85 84 83 82 82 81 80 80 80 80 80 80 80 80 80 80 80 80 80 80 80 80 80 80 80 81 81 82 83 84 85 85 85 85 86 86 85 85 84 83 83 83 83 83 83 83 83 83 84 85 85 86 87 87 88 88 88 88 88 88 85 83 81 79 79 78 77 77 76
-1 -1 -1 -1 -1 -1 -1 -1 -1 -1 -1 -1 -1 -1 -1 -1 -1 -1 -1 -1 -1 -1 -1 -1 -1 -1 -1 -1 -1 -1 -1 -1 -1 -1 -1 -1 -1 -1 -1 -1 -1 -1 -1 -1 -1 -1 -1 -1 -1 -1 -1 -1 -1 -1 -1 -1 -1 -1 -1 -1 -1 -1 -1 -1 -1 -1 -1 -1 -1 -1 -1 -1 -1 -1 -1 -1 -1 -1 -1 -1 -1 -1 -1 -1 -1 -1 -1 63 64 66 67 68 69 70 70 72 73 75 76 77 77 78 78 79 79 79 80 80 80 80 80 80 80 80 81 80 80 80 80 80 80 79 79 79 80 80 80 83 85 87 88 88 88 88 88 87 87 86 86 86 86 86 85 85 85 85 85 85 85 86 86 85 83 81 80 80 80 80 79 80 79 -1 -1 -1 81 84 84 84 83 82 81 82 82 82 83 83 84 84 84 85 85 86 87 86 86 86 86 85 84 83 82 81 80 80 80 80 80 80 80 80 80 80 80 80 80 80 80 80 80 80 80 81 81 82 82 84 84 85 85 85 86 86 86 86 85 84 83 83 83 83 83 83 83 83 83 84 85 85 86 86 87 88 88 89 89 89 89 86 83 81 79 79 78 77 77 76
-1 -1 -1 -1 -1 -1 -1 -1 -1 -1 -1 -1 -1 -1 -1 -1 -1 -1 -1 -1 -1 -1 -1 -1 -1 -1 -1 -1 -1 -1 -1 -1 -1 -1 -1 -1 -1 -1 -1 -1 -1 -1 -1 -1 -1 -1 -1 -1 -1 -1 -1 -1 -1 -1 -1 -1 -1 -1 -1 -1 -1 -1 -1 -1 -1 -1 -1 -1 -1 -1 -1 -1 -1 -1 -1 -1 -1 -1 -1 -1 -1 -1 -1 -1 -1 -1 -1 63 64 65 67 68 69 70 70 72 73 75 76 77 78 78 79 79 79 80 80 80 80 80 80 80 81 81 81 80 80 80 80 80 80 79 79 79 79 79 79 80 83 85 88 88 88 88 88 87 87 86 86 86 86 85 85 86 86 86 86 87 87 87 88 88 87 86 80 80 89 89 89 89 89 89 89 89 87 87 87 86 84 83 81 82 82 82 83 83 84 84 84 85 85 86 86 86 86 86 86 85 84 83 82 81 80 80 80 80 80 80 79 79 79 79 79 80 80 80 80 80 80 80 80 81 82 82 83 84 84 85 85 85 86 86 86 86 85 85 84 83 83 83 82 83 83 83 83 84 85 85 86 86 87 88 89 89 89 89 89 86 84 82 80 79 78 78 77 77
-1 -1 -1 -1 -1 -1 -1 -1 -1 -1 -1 -1 -1 -1 -1 -1 -1 -1 -1 -1 -1 -1 -1 -1 -1 -1 -1 -1 -1 -1 -1 -1 -1 -1 -1 -1 -1 -1 -1 -1 -1 -1 -1 -1 -1 -1 -1 -1 -1 -1 -1 -1 -1 -1 -1 -1 -1 -1 -1 -1 -1 -1 -1 -1 -1 -1 -1 -1 -1 -1 -1 -1 -1 -1 -1 -1 -1 -1 -1 -1 -1 -1 -1 -1 -1 -1 -1 63 63 64 65 66 67 68 69 71 73 74 76 77 77 78 79 79 79 80 80 80 80 80 80 80 80 81 81 80 80 80 80 80 80 79 79 79 79 79 79 80 82 84 86 86 87 87 87 87 87 86 86 86 85 85 85 86 86 86 86 87 87 87 88 88 87 87 86 87 89 89 90 89 89 89 89 89 87 86 86 85 84 83 82 82 82 82 82 83 83 84 84 85 85 85 86 86 86 86 86 85 84 83 82 81 80 80 80 80 80 80 79 79 79 80 80 80 80 80 80 80 80 80 80 81 82 82 83 84 84 85 85 85 85 86 86 86 85 85 84 84 83 83 83 83 83 83 84 84 85 85 86 86 87 88 88 89 89 89 89 87 85 83 82 81 80 79 79 78
-1 -1 -1 -1 -1 -1 -1 -1 -1 -1 -1 -1 -1 -1 -1 -1 -1 -1 -1 -1 -1 -1 -1 -1 -1 -1 -1 -1 -1 -1 -1 -1 -1 -1 -1 -1 -1 -1 -1 -1 -1 -1 -1 -1 -1 -1 -1 -1 -1 -1 -1 -1 -1 -1 -1 -1 -1 -1 -1 -1 -1 -1 -1 -1 -1 -1 -1 -1 -1 -1 -1 -1 -1 -1 -1 -1 -1 -1 -1 -1 -1 -1 -1 -1 -1 -1 -1 63 63 63 64 64 65 66 67 70 72 74 76 76 77 78 79 79 79 80 80 80 80 80 80 80 80 80 80 80 80 80 80 80 80 79 79 79 79 79 79 80 82 84 85 85 86 86 87 87 86 86 86 85 85 85 85 85 86 86 86 87 87 87 88 88 88 88 87 88 89 89 90 89 89 89 89 88 87 86 86 85 84 83 82 82 82 82 82 83 83 84 84 84 85 85 86 86 86 86 86 85 84 83 82 81 80 80 80 80 80 80 79 79 80 80 80 80 80 80 80 80 80 80 80 81 82 83 83 84 84 84 85 85 85 86 86 86 85 85 84 84 84 83 83 83 83 84 84 84 85 85 86 86 87 88 88 89 89 89 90 89 87 85 84 83 82 81 80 79
-1 -1 -1 -1 -1 -1 -1 -1 -1 -1 -1 -1 -1 -1 -1 -1 -1 -1 -1 -1 -1 -1 -1 -1 -1 -1 -1 -1 -1 -1 -1 -1 -1 -1 -1 -1 -1 -1 -1 -1 -1 -1 -1 -1 -1 -1 -1 -1 -1 -1 -1 -1 -1 -1 -1 -1 -1 -1 -1 -1 -1 -1 -1 -1 -1 -1 -1 -1 -1 -1 -1 -1 -1 -1 -1 -1 -1 -1 -1 -1 -1 -1 -1 -1 -1 -1 -1 -1 -1 63 63 64 64 64 65 69 71 74 75 76 77 78 78 79 79 80 80 80 80 80 80 80 80 80 80 80 80 80 80 80 79 79 79 79 79 79 79 80 82 83 84 85 85 86 87 87 86 86 85 85 85 85 85 85 86 86 86 87 87 87 88 88 88 88 88 88 89 89 90 89 89 89 89 88 87 86 85 85 84 84 83 83 82 82 82 83 83 84 84 84 85 85 85 85 85 86 86 85 84 83 82 81 80 80 80 80 80 80 79 77 77 77 80 80 80 80 80 80 80 80 81 81 82 83 83 84 84 84 84 85 85 85 86 86 85 85 85 84 84 83 83 83 84 84 84 85 85 85 86 86 87 88 88 89 89 90 90 89 89 88 87 86 85 84 83 81
-1 -1 -1 -1 -1 -1 -1 -1 -1 -1 -1 -1 -1 -1 -1 -1 -1 -1 -1 -1 -1 -1 -1 -1 -1 -1 -1 -1 -1 -1 -1 -1 -1 -1 -1 -1 -1 -1 -1 -1 -1 -1 -1 -1 -1 -1 -1 -1 -1 -1 -1 -1 -1 -1 -1 -1 -1 -1 -1 -1 -1 -1 -1 -1 -1 -1 -1 -1 -1 -1 -1 -1 -1 -1 -1 -1 -1 -1 -1 -1 -1 -1 -1 -1 -1 -1 -1 -1 -1 -1 -1 63 63 63 64 67 71 73 75 76 77 78 78 79 79 80 80 80 80 80 80 80 80 80 80 80 80 80 80 80 79 79 79 79 79 79 80 81 82 83 84 84 85 85 87 86 86 86 85 85 85 85 85 85 86 86 86 87 87 87 88 88 88 88 88 88 89 89 90 89 89 89 89 88 87 86 85 84 84 84 83 83 83 82 82 83 83 84 84 84 85 85 85 85 85 86 86 85 84 83 82 81 80 80 80 80 80 80 77 77 77 77 77 77 77 77 77 77 80 80 81 81 82 83 83 84 84 84 84 85 85 85 86 85 85 85 85 85 84 84 83 83 84 84 84 85 85 85 86 86 87 88 88 89 90 90 90 90 90 89 89 89 87 86 85 82
-1 -1 -1 -1 -1 -1 -1 -1 -1 -1 -1 -1 -1 -1 -1 -1 -1 -1 -1 -1 -1 -1 -1 -1 -1 -1 -1 -1 -1 -1 -1 -1 -1 -1 -1 -1 -1 -1 -1 -1 -1 -1 -1 -1 -1 -1 -1 -1 -1 -1 -1 -1 -1 -1 -1 -1 -1 -1 -1 -1 -1 -1 -1 -1 -1 -1 -1 -1 -1 -1 -1 -1 -1 -1 -1 -1 -1 -1 -1 -1 -1 -1 -1 -1 -1 -1 -1 -1 -1 -1 -1 -1 63 63 63 66 70 72 74 75 76 77 78 79 79 80 80 80 80 80 80 80 80 80 80 80 80 80 80 80 79 79 79 79 79 79 79 80 82 83 84 84 84 85 86 86 86 86 85 85 85 85 85 85 86 86 86 87 87 87 88 88 88 88 88 88 89 89 90 89 89 89 89 88 87 86 85 84 84 84 83 83 82 82 82 82 83 83 83 84 84 84 85 85 85 85 85 84 83 83 82 82 81 80 80 80 80 80 80 80 77 77 77 77 77 77 77 80 80 80 81 81 82 83 83 83 84 84 84 84 85 85 86 85 85 85 85 85 85 84 84 84 84 84 85 85 85 86 86 87 87 88 88 89 90 90 91 90 90 90 90 89 88 87 86 84
-1 -1 -1 -1 -1 -1 -1 -1 -1 -1 -1 -1 -1 -1 -1 -1 -1 -1 -1 -1 -1 -1 -1 -1 -1 -1 -1 -1 -1 -1 -1 -1 -1 -1 -1 -1 -1 -1 -1 -1 -1 -1 -1 -1 -1 -1 -1 -1 -1 -1 -1 -1 -1 -1 -1 -1 -1 -1 -1 -1 -1 -1 -1 -1 -1 -1 -1 -1 -1 -1 -1 -1 -1 -1 -1 -1 -1 -1 -1 -1 -1 -1 -1 -1 -1 -1 -1 -1 -1 -1 -1 -1 -1 63 63 65 69 72 74 75 76 77 78 78 79 79 80 80 80 80 80 80 80 80 80 80 80 80 80 80 79 79 79 79 79 79 79 80 82 83 84 84 84 85 85 85 85 85 85 85 85 85 85 85 86 86 86 87 87 87 88 88 88 88 88 88 89 89 90 89 89 89 89 88 87 86 85 84 84 84 83 83 82 82 81 82 82 82 82 83 83 84 84 84 84 84 83 83 83 83 82 82 81 80 80 80 80 80 80 80 80 80 80 80 80 77 80 80 80 80 81 81 82 82 83 83 84 84 84 84 85 85 86 86 85 85 85 85 85 85 84 84 84 85 85 85 86 86 87 87 88 88 89 90 90 90 91 91 90 90 90 90 89 89 88 85
-1 -1 -1 -1 -1 -1 -1 -1 -1 -1 -1 -1 -1 -1 -1 -1 -1 -1 -1 -1 -1 -1 -1 -1 -1 -1 -1 -1 -1 -1 -1 -1 -1 -1 -1 -1 -1 -1 -1 -1 -1 -1 -1 -1 -1 -1 -1 -1 -1 -1 -1 -1 -1 -1 -1 -1 -1 -1 -1 -1 -1 -1 -1 -1 -1 -1 -1 -1 -1 -1 -1 -1 -1 -1 -1 -1 -1 -1 -1 -1 -1 -1 -1 -1 -1 -1 -1 -1 -1 -1 -1 -1 -1 63 63 64 68 71 73 74 75 76 77 78 79 79 80 80 80 80 80 80 80 80 80 80 80 80 80 80 79 79 79 79 79 79 79 80 82 83 84 84 84 84 85 85 85 85 86 85 85 85 85 85 86 86 86 87 87 87 87 88 88 88 88 88 89 89 90 89 89 89 88 88 87 86 85 84 84 84 83 83 82 82 81 81 81 81 81 82 83 83 84 84 83 83 82 82 82 82 82 82 81 81 80 80 80 80 80 80 80 80 80 80 80 80 80 80 80 81 81 82 82 82 83 83 83 84 84 84 85 85 86 86 86 86 86 85 85 85 85 85 85 85 85 85 86 86 87 88 88 89 89 90 90 91 91 91 91 91 90 90 90 89 89 86
-1 -1 -1 -1 -1 -1 -1 -1 -1 -1 -1 -1 -1 -1 -1 -1 -1 -1 -1 -1 -1 -1 -1 -1 -1 -1 -1 -1 -1 -1 -1 -1 -1 -1 -1 -1 -1 -1 -1 -1 -1 -1 -1 -1 -1 -1 -1 -1 -1 -1 -1 -1 -1 -1 -1 -1 -1 -1 -1 -1 -1 -1 -1 -1 -1 -1 -1 -1 -1 -1 -1 -1 -1 -1 -1 -1 -1 -1 -1 -1 -1 -1 -1 -1 -1 -1 -1 -1 -1 -1 -1 -1 -1 -1 -1 64 67 70 72 74 75 76 77 78 78 79 79 79 80 80 80 80 80 80 80 80 80 80 80 80 79 79 79 79 79 79 79 80 82 83 84 84 84 84 85 85 85 85 86 86 85 85 85 85 86 86 86 87 87 87 87 87 88 88 88 88 89 89 90 89 89 89 88 88 87 86 84 84 84 84 83 83 82 82 81 80 80 80 80 81 82 83 84 83 83 82 82 82 82 82 82 82 82 81 80 80 80 80 80 80 80 80 80 80 80 80 80 80 80 81 81 82 82 82 82 83 83 84 84 84 85 85 86 86 86 86 86 86 85 85 85 85 85 85 85 86 86 87 87 88 89 89 90 90 90 91 91 91 91 91 91 91 90 90 89 87
-1 -1 -1 -1 -1 -1 -1 -1 -1 -1 -1 -1 -1 -1 -1 -1 -1 -1 -1 -1 -1 -1 -1 -1 -1 -1 -1 -1 -1 -1 -1 -1 -1 -1 -1 -1 -1 -1 -1 -1 -1 -1 -1 -1 -1 -1 -1 -1 -1 -1 -1 -1 -1 -1 -1 -1 -1 -1 -1 -1 -1 -1 -1 -1 -1 -1 -1 -1 -1 -1 -1 -1 -1 -1 -1 -1 -1 -1 -1 -1 -1 -1 -1 -1 -1 -1 -1 -1 -1 -1 -1 -1 -1 -1 -1 64 67 69 71 73 74 76 77 77 78 79 79 79 79 80 80 80 80 80 80 80 80 80 80 80 79 79 79 79 79 79 79 80 82 83 84 84 84 84 85 85 85 86 86 86 86 86 86 86 86 86 86 87 87 87 88 88 88 88 88 88 88 89 89 89 89 88 88 88 87 86 85 85 84 84 83 83 82 82 81 81 81 80 80 81 82 83 83 83 82 82 81 82 82 82 82 82 82 81 81 81 80 80 80 80 80 80 80 80 80 80 80 81 81 82 82 82 82 82 82 83 83 84 84 85 85 85 86 86 86 86 86 86 86 86 86 86 86 86 85 86 86 87 87 88 88 89 89 90 90 90 91 91 91 91 91 91 90 90 90 88
-1 -1 -1 -1 -1 -1 -1 -1 -1 -1 -1 -1 -1 -1 -1 -1 -1 -1 -1 -1 -1 -1 -1 -1 -1 -1 -1 -1 -1 -1 -1 -1 -1 -1 -1 -1 -1 -1 -1 -1 -1 -1 -1 -1 -1 -1 -1 -1 -1 -1 -1 -1 -1 -1 -1 -1 -1 -1 -1 -1 -1 -1 -1 -1 -1 -1 -1 -1 -1 -1 -1 -1 -1 -1 -1 -1 -1 -1 -1 -1 -1 -1 -1 -1 -1 -1 -1 -1 -1 -1 -1 -1 -1 -1 -1 64 66 69 70 72 74 75 76 77 78 78 79 79 79 79 80 80 80 80 80 80 80 80 80 80 79 79 79 79 79 79 79 80 82 83 84 84 84 85 85 85 86 86 86 86 86 86 86 86 86 87 87 87 87 88 88 88 88 88 88 88 88 88 89 88 88 88 88 87 87 86 86 85 84 84 84 83 83 82 82 81 81 81 80 81 82 82 83 82 82 81 81 81 82 82 82 82 82 82 81 81 81 81 81 80 80 80 80 80 80 81 81 81 82 82 83 83 83 82 82 83 83 84 84 85 85 85 86 86 86 86 87 87 87 87 87 86 86 86 86 86 86 87 87 88 88 89 89 89 90 90 90 91 91 91 91 91 91 90 90 89
-1 -1 -1 -1 -1 -1 -1 -1 -1 -1 -1 -1 -1 -1 -1 -1 -1 -1 -1 -1 -1 -1 -1 -1 -1 -1 -1 -1 -1 -1 -1 -1 -1 -1 -1 -1 -1 -1 -1 -1 -1 -1 -1 -1 -1 -1 -1 -1 -1 -1 -1 -1 -1 -1 -1 -1 -1 -1 -1 -1 -1 -1 -1 -1 -1 -1 -1 -1 -1 -1 -1 -1 -1 -1 -1 -1 -1 -1 -1 -1 -1 -1 -1 -1 -1 -1 -1 -1 -1 -1 -1 -1 -1 -1 -1 64 65 68 70 71 73 75 76 77 78 78 79 79 79 79 80 80 80 80 80 80 80 80 80 80 79 79 79 79 79 79 79 80 82 83 84 84 85 85 86 86 86 86 87 87 87 87 87 87 87 87 87 87 88 88 88 88 88 88 88 88 88 88 88 88 88 88 88 87 87 87 86 85 85 84 84 83 83 83 82 82 81 81 81 81 81 81 82 81 81 81 81 81 82 82 82 82 82 82 82 82 82 82 82 81 81 81 81 79 81 81 81 82 83 83 84 83 83 83 82 83 84 84 85 85 85 86 86 86 86 87 87 87 87 87 87 87 87 86 86 86 86 87 87 87 88 88 89 89 89 90 90 90 91 91 91 91 91 91 90 90
-1 -1 -1 -1 -1 -1 -1 -1 -1 -1 -1 -1 -1 -1 -1 -1 -1 -1 -1 -1 -1 -1 -1 -1 -1 -1 -1 -1 -1 -1 -1 -1 -1 -1 -1 -1 -1 -1 -1 -1 -1 -1 -1 -1 -1 -1 -1 -1 -1 -1 -1 -1 -1 -1 -1 -1 -1 -1 -1 -1 -1 -1 -1 -1 -1 -1 -1 -1 -1 -1 -1 -1 -1 -1 -1 -1 -1 -1 -1 -1 -1 -1 -1 -1 -1 -1 -1 -1 -1 -1 -1 -1 -1 -1 -1 63 65 67 69 71 72 74 75 76 77 78 79 79 79 79 79 80 80 80 80 80 80 80 80 80 79 79 79 79 79 79 79 80 82 83 84 84 85 85 87 87 87 87 87 87 87 88 88 88 88 87 87 88 88 88 88 88 88 88 88 88 88 88 87 87 87 87 87 87 87 87 86 86 85 84 84 84 83 83 82 82 82 81 81 81 81 80 80 80 80 80 81 81 81 82 82 82 82 82 83 83 83 83 83 82 82 82 -1 82 82 82 82 83 83 84 85 84 83 83 82 83 84 84 85 85 85 86 86 86 87 87 87 87 88 88 88 88 87 87 86 86 87 87 87 87 88 88 88 89 89 89 90 90 91 91 92 91 91 91 91 91
-1 -1 -1 -1 -1 -1 -1 -1 -1 -1 -1 -1 -1 -1 -1 -1 -1 -1 -1 -1 -1 -1 -1 -1 -1 -1 -1 -1 -1 -1 -1 -1 -1 -1 -1 -1 -1 -1 -1 -1 -1 -1 -1 -1 -1 -1 -1 -1 -1 -1 -1 -1 -1 -1 -1 -1 -1 -1 -1 -1 -1 -1 -1 -1 -1 -1 -1 -1 -1 -1 -1 -1 -1 -1 -1 -1 -1 -1 -1 -1 -1 -1 -1 -1 -1 -1 -1 -1 -1 -1 -1 -1 -1 -1 -1 63 64 66 68 70 72 73 75 76 77 78 78 79 79 79 79 80 80 80 80 80 80 80 80 80 79 79 79 79 79 79 79 80 82 84 84 85 85 86 87 87 87 87 87 88 88 88 88 88 88 88 88 88 88 88 88 88 88 88 88 88 88 87 87 87 87 87 87 87 87 87 87 86 85 85 84 84 84 83 83 83 82 82 82 82 81 81 81 81 81 81 81 81 82 82 82 82 82 83 83 83 83 84 84 83 83 83 82 82 83 83 83 83 84 84 85 84 84 84 83 84 84 85 85 85 85 86 86 86 86 87 87 87 87 87 88 87 87 87 86 86 87 87 87 87 87 88 88 89 89 89 89 90 91 91 92 92 91 91 91 91
-1 -1 -1 -1 -1 -1 -1 -1 -1 -1 -1 -1 -1 -1 -1 -1 -1 -1 -1 -1 -1 -1 -1 -1 -1 -1 -1 -1 -1 -1 -1 -1 -1 -1 -1 -1 -1 -1 -1 -1 -1 -1 -1 -1 -1 -1 -1 -1 -1 -1 -1 -1 -1 -1 -1 -1 -1 -1 -1 -1 -1 -1 -1 -1 -1 -1 -1 -1 -1 -1 -1 -1 -1 -1 -1 -1 -1 -1 -1 -1 -1 -1 -1 -1 -1 -1 -1 -1 -1 -1 -1 -1 -1 -1 -1 63 64 64 66 69 71 72 74 75 77 77 78 78 79 79 79 79 80 80 80 80 80 80 80 80 79 79 79 79 79 79 79 80 82 84 85 85 85 86 88 88 88 88 88 88 89 89 89 89 88 88 88 88 88 88 88 88 88 88 88 88 87 87 87 87 87 87 87 87 87 87 87 86 86 85 85 84 84 84 84 83 83 83 82 82 82 82 81 81 81 81 81 81 82 82 82 82 83 83 83 84 84 84 85 84 84 83 83 83 83 84 84 84 85 85 86 85 85 84 84 84 85 85 85 85 85 86 86 86 86 87 87 87 87 87 87 87 87 87 86 86 87 87 87 87 87 88 88 89 89 89 89 90 91 91 92 92 92 92 91 91
-1 -1 -1 -1 -1 -1 -1 -1 -1 -1 -1 -1 -1 -1 -1 -1 -1 -1 -1 -1 -1 -1 -1 -1 -1 -1 -1 -1 -1 -1 -1 -1 -1 63 64 -1 63 63 63 -1 -1 -1 -1 -1 -1 -1 -1 -1 -1 -1 -1 -1 -1 -1 -1 -1 -1 -1 -1 -1 -1 -1 -1 -1 -1 -1 -1 -1 -1 -1 -1 -1 -1 -1 -1 -1 -1 -1 -1 -1 -1 -1 -1 -1 -1 -1 -1 -1 -1 -1 -1 -1 -1 -1 -1 -1 63 64 64 68 70 72 73 75 76 77 78 78 79 79 79 79 80 80 80 80 80 80 80 80 80 79 79 79 79 79 79 80 83 84 85 85 86 87 88 88 89 89 89 89 89 89 89 89 89 89 88 88 88 88 87 87 87 87 88 87 87 87 87 87 87 87 87 87 87 87 87 86 86 85 85 85 85 84 84 84 84 83 83 83 82 82 82 82 81 81 81 81 82 82 82 82 83 83 84 84 85 85 86 85 85 84 84 84 84 84 85 85 85 86 86 86 86 85 85 85 85 85 85 85 85 86 86 86 86 87 87 87 87 87 87 87 87 87 87 87 87 86 86 87 87 88 88 89 89 89 89 90 91 91 92 92 92 92 92 92
-1 -1 -1 -1 -1 -1 -1 -1 -1 -1 -1 -1 -1 -1 -1 -1 -1 -1 -1 -1 -1 -1 -1 -1 -1 -1 -1 -1 -1 -1 -1 -1 63 74 78 76 74 70 67 64 63 -1 -1 -1 -1 -1 -1 -1 -1 -1 -1 -1 -1 -1 -1 -1 -1 -1 -1 -1 -1 -1 -1 -1 -1 -1 -1 -1 -1 -1 -1 -1 -1 -1 -1 -1 -1 -1 -1 -1 -1 -1 -1 -1 -1 -1 -1 -1 -1 -1 -1 -1 -1 -1 -1 -1 -1 63 64 66 69 71 73 74 76 77 77 78 78 79 79 79 80 80 80 80 80 80 80 80 80 80 79 79 79 79 79 81 83 84 85 85 86 87 89 89 89 89 89 89 90 90 90 89 89 89 89 88 88 87 87 87 87 87 87 87 87 87 86 87 87 87 87 87 87 87 87 86 86 86 85 85 85 85 85 84 84 84 84 83 83 83 82 82 82 82 81 82 82 82 82 82 83 84 84 85 85 86 86 86 86 85 85 85 85 85 86 86 86 86 87 86 86 86 86 86 85 85 85 85 85 86 86 86 86 87 87 87 87 87 87 87 87 87 87 87 87 86 86 87 87 88 88 89 89 89 89 90 91 92 92 92 92 92 92 92
-1 -1 -1 -1 -1 -1 -1 -1 -1 -1 -1 -1 -1 -1 -1 -1 -1 -1 -1 -1 -1 -1 -1 -1 -1 -1 -1 -1 -1 -1 -1 63 69 77 80 79 77 76 75 70 66 64 63 63 63 -1 -1 -1 -1 -1 -1 -1 -1 -1 -1 -1 -1 -1 -1 -1 -1 -1 -1 -1 -1 -1 -1 -1 -1 -1 -1 -1 -1 -1 -1 -1 -1 -1 -1 -1 -1 -1 -1 -1 -1 -1 -1 -1 -1 -1 -1 -1 -1 -1 -1 -1 -1 63 63 66 69 71 72 74 75 76 77 78 78 79 79 79 80 80 80 80 80 80 80 80 80 80 80 80 80 80 80 80 82 84 85 85 86 87 89 89 90 90 90 90 90 90 90 90 89 89 89 88 88 88 87 87 87 87 87 87 87 87 86 87 87 87 87 87 87 87 87 86 86 86 86 86 85 85 85 85 84 84 84 84 83 83 82 82 82 82 81 81 82 82 82 83 83 84 85 86 86 87 87 87 86 86 86 86 86 86 86 87 87 87 87 87 87 87 87 86 86 85 85 85 86 86 86 86 86 86 87 87 87 86 86 87 87 87 87 87 87 86 86 87 87 88 88 89 89 90 90 90 91 92 92 92 92 92 92 92
-1 -1 -1 -1 -1 -1 -1 -1 -1 -1 -1 -1 -1 -1 -1 -1 -1 -1 -1 -1 -1 -1 -1 -1 -1 -1 -1 63 63 63 64 70 76 80 81 81 80 79 78 74 70 68 66 66 65 64 64 64 64 64 64 64 63 63 63 -1 -1 -1 -1 -1 -1 -1 -1 -1 -1 -1 -1 -1 -1 -1 -1 -1 -1 -1 -1 -1 -1 -1 -1 -1 -1 -1 -1 -1 -1 -1 -1 -1 -1 -1 -1 -1 -1 -1 -1 -1 -1 63 63 65 68 70 72 73 75 76 77 78 78 79 79 79 80 80 80 80 80 80 80 80 80 80 80 80 80 80 80 80 82 83 84 85 86 87 90 90 90 90 90 90 90 90 90 90 90 89 89 89 88 88 87 87 87 87 87 87 87 87 86 87 87 87 87 87 87 87 86 86 86 86 86 86 86 85 85 85 85 85 84 84 84 83 83 82 82 81 81 81 82 82 82 83 84 85 86 86 87 87 88 87 87 87 87 87 87 87 87 87 87 88 88 88 87 87 87 87 86 86 85 86 86 86 86 86 86 86 86 86 86 86 86 87 87 87 87 87 87 86 86 87 87 88 88 89 89 90 90 91 91 91 92 92 92 92 92 93
-1 -1 -1 -1 -1 -1 -1 -1 -1 -1 -1 -1 -1 -1 -1 -1 -1 -1 -1 -1 -1 -1 -1 -1 -1 63 65 66 67 68 69 75 81 82 83 82 82 81 80 77 73 71 69 69 68 67 66 66 66 67 67 67 67 67 68 64 63 -1 -1 -1 -1 -1 -1 -1 -1 -1 -1 -1 -1 -1 -1 -1 -1 -1 -1 -1 -1 -1 -1 -1 -1 -1 -1 -1 -1 -1 -1 -1 -1 -1 -1 -1 -1 -1 -1 -1 -1 63 63 65 68 70 71 73 75 76 77 78 78 79 79 79 80 80 80 80 80 80 80 80 80 80 80 80 80 80 80 80 81 82 83 84 86 88 90 90 90 90 90 90 90 90 90 90 90 89 89 89 88 88 87 87 87 86 86 86 86 86 86 87 87 87 87 87 87 86 86 86 86 86 87 86 86 86 85 85 85 85 85 84 84 83 83 82 82 81 80 81 82 82 83 83 84 85 86 87 87 88 88 88 88 88 88 88 88 88 88 88 88 88 88 88 88 88 87 87 86 86 86 86 86 86 86 86 86 86 86 86 86 86 86 86 87 87 87 87 87 86 86 87 87 88 88 89 90 90 91 91 91 91 92 92 92 92 93 93
-1 -1 -1 -1 -1 -1 -1 -1 -1 -1 -1 -1 -1 -1 -1 -1 -1 -1 -1 -1 -1 -1 -1 -1 64 67 69 70 71 72 81 82 83 84 84 84 84 83 83 80 77 72 71 70 70 69 68 68 68 69 69 70 70 71 72 69 67 64 63 -1 -1 -1 -1 -1 -1 -1 -1 -1 -1 -1 -1 -1 -1 -1 -1 -1 -1 -1 -1 -1 -1 -1 -1 -1 -1 -1 -1 -1 -1 -1 -1 -1 -1 -1 -1 -1 -1 -1 63 65 68 70 71 72 74 76 77 78 78 79 79 79 80 80 80 80 80 80 80 80 80 80 80 80 80 80 80 80 81 81 81 84 86 88 91 91 91 91 91 91 91 91 91 90 90 90 89 89 88 88 87 87 87 86 86 86 86 86 87 87 87 87 87 87 86 86 86 86 86 87 87 87 86 86 86 86 86 85 85 85 84 84 83 83 82 81 80 81 82 82 83 84 85 86 87 87 88 88 89 89 89 89 89 89 89 89 88 88 88 89 89 88 88 88 88 87 87 86 86 86 86 86 86 86 86 86 86 86 86 86 86 86 87 87 87 87 87 86 86 87 87 88 88 89 90 91 91 91 91 91 91 92 92 93 93 93
-1 -1 -1 -1 -1 -1 -1 -1 -1 -1 -1 -1 -1 -1 -1 -1 -1 -1 -1 -1 63 63 63 64 68 70 72 73 77 81 83 84 84 85 85 85 85 84 84 82 79 77 74 72 72 71 70 71 71 71 71 71 72 72 74 71 70 67 65 63 -1 -1 -1 -1 -1 -1 -1 -1 -1 -1 -1 -1 -1 -1 -1 -1 -1 -1 -1 -1 -1 -1 -1 -1 -1 -1 -1 -1 -1 -1 -1 -1 -1 -1 -1 -1 -1 -1 63 64 67 69 70 72 74 75 76 77 78 79 79 79 80 80 80 80 80 80 80 80 80 80 80 80 80 80 80 81 81 82 82 84 86 88 91 91 91 91 91 91 91 91 91 91 90 90 90 90 89 89 88 88 87 87 87 87 87 87 87 87 87 87 87 87 87 86 86 86 87 87 87 87 86 86 86 86 86 86 85 85 85 84 84 83 83 82 80 81 81 82 82 84 85 86 87 87 88 88 89 89 89 89 90 89 89 89 89 89 89 89 89 89 89 88 88 87 87 86 86 86 86 86 86 86 86 86 86 86 86 86 86 86 87 87 87 87 87 86 86 87 87 88 89 90 90 91 92 92 91 91 91 92 92 93 93 93
-1 -1 -1 -1 -1 -1 -1 -1 -1 -1 -1 -1 -1 -1 -1 -1 -1 -1 63 64 64 66 68 71 72 75 77 79 81 83 84 85 85 86 86 86 86 86 86 84 81 80 78 77 76 74 73 73 73 73 73 73 74 74 75 73 72 70 68 65 63 -1 -1 -1 -1 -1 -1 -1 -1 -1 -1 -1 -1 -1 -1 -1 -1 -1 -1 -1 -1 -1 -1 -1 -1 -1 -1 -1 -1 -1 -1 -1 -1 -1 -1 -1 -1 -1 63 64 66 68 69 71 73 75 76 77 78 78 79 79 80 80 80 80 80 80 80 80 80 80 80 80 81 81 81 81 82 83 83 85 87 89 92 92 92 92 92 91 91 91 91 91 91 91 91 90 90 89 89 89 88 88 88 88 87 87 87 87 87 87 87 87 87 87 87 87 87 87 87 87 87 86 86 86 86 86 86 85 85 85 84 84 83 83 81 81 81 81 81 83 85 86 87 88 88 89 89 89 89 90 90 90 90 90 90 90 89 89 89 89 89 89 88 87 87 86 86 86 86 86 86 86 86 86 86 86 86 86 86 87 87 87 87 87 87 86 85 86 87 88 89 90 91 91 92 92 92 92 91 92 92 92 93 93
-1 -1 -1 -1 -1 -1 -1 -1 -1 -1 -1 -1 -1 -1 -1 -1 -1 64 65 68 70 72 76 78 79 80 81 82 84 85 86 86 86 87 87 87 87 87 87 86 85 82 80 79 78 78 77 76 76 76 76 76 76 76 76 75 74 72 72 68 65 63 -1 -1 -1 -1 -1 -1 -1 -1 -1 -1 -1 -1 -1 -1 -1 -1 -1 -1 -1 -1 -1 -1 -1 -1 -1 -1 -1 -1 -1 -1 -1 -1 -1 -1 -1 -1 63 64 65 67 68 70 72 74 75 77 77 78 79 79 79 80 80 80 80 80 80 80 80 80 81 81 81 81 81 82 83 84 85 87 89 90 93 92 92 92 92 92 92 91 91 91 91 91 92 91 91 90 90 90 90 89 89 89 88 87 87 87 87 87 87 87 87 87 87 87 87 87 87 87 87 86 86 86 86 86 86 86 86 85 85 85 84 83 82 82 81 80 80 83 85 86 87 88 88 89 89 89 90 90 90 90 90 90 90 90 90 90 90 89 89 89 88 88 87 86 86 86 86 86 86 87 87 87 87 87 87 86 86 87 87 87 87 87 87 86 85 86 87 88 89 90 91 92 92 92 92 92 92 92 92 92 93 93
-1 -1 -1 -1 -1 63 73 63 63 -1 -1 -1 -1 -1 -1 -1 63 64 68 71 79 81 82 82 83 83 83 84 85 86 87 87 87 88 88 88 88 89 89 88 87 86 85 82 80 79 79 79 78 78 78 78 77 77 77 76 76 75 75 70 67 64 63 -1 -1 -1 -1 -1 -1 -1 -1 -1 -1 -1 -1 -1 -1 -1 -1 -1 -1 -1 -1 -1 -1 -1 -1 -1 -1 -1 -1 -1 -1 -1 -1 -1 -1 -1 63 63 64 66 67 70 71 73 75 76 77 78 79 79 79 80 80 80 80 80 80 80 80 80 81 81 81 82 82 83 84 85 87 89 90 91 93 93 93 93 92 92 92 92 91 92 92 92 92 92 91 91 91 91 91 91 91 90 89 88 87 87 87 87 87 87 87 87 87 87 87 87 87 87 87 87 87 86 86 86 86 86 86 86 86 86 85 85 83 82 81 80 80 81 85 87 88 88 89 89 89 90 90 90 90 90 90 90 90 90 90 90 90 90 89 89 88 88 87 86 86 86 86 86 87 87 87 87 88 87 87 86 86 87 87 87 88 87 87 86 85 86 87 88 89 90 91 92 92 92 92 92 92 92 92 92 92 93
