76 77 77 77 77 77 77 77 77 76 76 75 75 75 74 74 74 73 73 72 72 71 71 70 70 70 69 69 69 69 69 70 70 70 70 70 70 70 70 70 70 70 70 70 70 70 70 70 70 70 70 70 70 69 69 69 69 69 70 70 70 70 71 71 72 72 72 72 73 73 73 73 -1 -1 -1 72 71 71 70 67 64 64 63 63 63 63 63 64 64 64 65 66 67 68 68 69 70 70 71 71 72 72 72 73 73 74 74 74 74 74 74 74 74 74 74 74 74 74 74 73 73 73 73 73 73 73 73 73 73 73 73 72 72 72 71 71 70 69 69 68 67 66 65 64 64 63 -1 -1 -1 -1 -1 -1 -1 -1 -1 63 63 63 63 -1 63 63 63 63 63 63 -1 -1 -1 63 63 63 63 63 63 -1 63 63 63 -1 -1 63 63 63 63 63 -1 -1 -1 -1 -1 -1 -1 -1 -1 -1 -1 -1 -1 -1 -1 63 63 64 64 65 66 66 67 67 68 68 68 68 68 68 68 68 68 68 68 68 68 68 68 68 68 68 68 68 68 68 68 68 68 68 68 68 68 68 68 68 68 68 68 68 68 68 68 68 62 63 64 66 68 68
77 77 77 77 77 78 78 77 77 76 76 76 75 75 75 74 74 74 73 73 72 71 71 70 70 70 70 70 70 69 69 70 70 70 70 70 70 70 70 71 71 71 71 71 70 70 70 70 70 70 70 70 70 70 69 69 70 70 70 70 70 71 71 71 72 72 72 73 73 73 73 73 -1 -1 -1 72 71 70 68 65 64 64 63 63 63 63 63 64 64 66 67 68 68 69 70 70 70 71 72 72 72 72 72 73 73 74 74 74 74 74 74 74 74 74 74 74 74 74 74 74 74 73 73 73 73 73 73 73 73 72 72 72 72 71 71 70 69 69 68 67 66 65 64 64 63 63 -1 -1 -1 -1 -1 -1 -1 -1 63 63 63 63 -1 -1 63 -1 64 63 63 -1 -1 -1 -1 64 64 64 64 64 63 -1 -1 -1 63 63 63 63 63 -1 -1 63 -1 -1 -1 63 63 -1 -1 -1 -1 -1 -1 63 63 63 -1 63 64 64 64 65 66 67 67 67 68 68 68 68 68 68 68 68 68 68 68 68 68 68 68 68 68 68 68 68 68 68 68 62 62 68 68 68 68 68 68 68 69 68 68 68 68 68 68 68 68 68 68 68 68 68
77 77 78 78 78 78 78 77 77 77 76 76 76 75 75 75 74 74 73 73 72 72 71 71 70 70 70 70 70 70 69 70 70 70 70 70 70 71 71 71 71 71 71 71 71 71 71 71 71 71 71 70 70 70 70 70 70 70 70 70 71 71 71 71 72 72 73 73 73 73 73 73 -1 -1 -1 71 70 68 67 65 64 64 64 64 64 64 64 64 65 67 68 68 69 69 70 70 71 71 72 72 72 72 72 73 73 73 74 74 74 74 74 74 74 74 74 74 74 74 74 74 74 73 73 73 73 73 73 73 72 72 72 72 71 71 70 69 68 67 66 65 64 64 64 63 63 -1 -1 -1 -1 -1 -1 -1 -1 63 63 63 -1 -1 -1 -1 63 64 64 64 64 64 -1 64 64 64 64 64 64 64 64 -1 -1 -1 63 63 63 63 63 -1 -1 63 -1 63 63 63 -1 -1 -1 -1 -1 63 63 63 63 63 63 64 64 64 65 65 66 67 67 67 68 68 68 68 68 68 68 68 68 68 68 68 68 68 68 68 68 68 68 68 68 68 68 62 62 68 68 68 68 68 68 68 68 68 68 68 68 68 68 68 68 68 68 67 67 67
77 77 78 78 78 78 78 78 77 77 77 76 76 75 75 75 74 74 74 73 73 72 71 71 71 70 70 70 70 70 70 70 70 70 70 70 71 71 71 71 71 71 71 71 71 71 71 71 71 71 71 71 70 70 70 70 70 70 71 71 71 71 71 72 72 72 73 73 73 73 73 72 72 72 71 70 69 67 66 65 64 64 64 64 64 64 65 66 67 68 68 69 69 70 70 71 71 71 72 72 72 72 72 72 73 73 73 74 74 74 74 74 74 74 74 74 74 74 74 74 74 74 73 73 73 73 73 73 72 72 72 71 71 70 70 68 67 65 64 64 64 64 63 63 -1 -1 -1 -1 -1 -1 -1 -1 -1 63 63 63 63 -1 -1 63 64 64 64 64 64 64 64 64 64 64 64 64 64 64 64 64 -1 -1 63 63 -1 -1 -1 -1 -1 -1 -1 63 63 -1 -1 63 63 -1 -1 63 -1 63 63 -1 63 64 64 64 65 66 66 67 67 68 68 68 68 68 68 68 68 68 68 68 68 68 68 68 68 68 68 68 68 68 68 68 68 62 62 68 68 68 68 68 68 68 68 68 68 68 68 68 68 68 68 67 67 67 67 67
77 78 78 78 78 78 78 78 78 77 77 76 76 76 75 75 75 74 74 74 73 72 72 71 71 70 70 70 70 70 70 70 70 70 70 70 71 71 71 71 71 71 71 71 71 71 71 71 71 71 71 71 71 71 70 70 71 71 71 71 71 71 72 72 72 73 73 73 73 73 73 72 72 71 71 69 68 66 65 65 65 65 65 66 67 67 68 69 69 69 69 70 70 71 71 71 71 71 72 72 72 72 72 72 73 73 73 73 73 74 74 74 74 74 74 74 74 74 74 74 74 74 74 73 73 73 73 72 72 72 72 71 70 70 69 67 66 64 64 64 63 63 63 -1 -1 -1 -1 -1 -1 -1 -1 -1 -1 63 63 63 63 63 63 64 64 64 64 64 64 64 64 64 64 64 64 64 64 64 64 64 64 63 63 63 -1 -1 -1 -1 -1 -1 63 63 -1 -1 -1 63 63 -1 -1 -1 -1 63 63 -1 64 64 64 64 65 66 67 67 67 68 68 68 68 68 68 68 68 68 68 68 68 68 68 68 68 68 68 68 68 68 68 68 68 62 62 68 68 68 68 68 68 68 68 68 68 68 68 68 67 67 67 67 67 67 67 67
77 78 78 78 78 79 79 78 78 78 77 77 76 76 76 75 75 75 74 74 73 73 72 71 71 71 70 70 70 70 70 70 70 70 70 70 71 71 71 71 71 71 71 72 72 72 72 72 72 72 71 71 71 71 71 71 71 71 71 71 72 72 72 72 73 73 73 73 73 73 73 72 72 71 70 68 67 65 64 65 66 66 67 68 69 70 71 71 71 71 71 71 71 71 72 72 72 72 72 72 72 72 72 72 72 73 73 73 73 74 74 74 74 74 74 74 74 74 74 74 74 74 74 73 73 73 73 72 72 72 71 71 70 69 68 66 65 64 63 63 63 -1 -1 -1 -1 -1 -1 -1 -1 -1 -1 -1 -1 63 63 -1 -1 64 64 64 64 64 64 64 64 64 64 64 64 64 64 64 64 64 64 64 64 64 63 63 63 63 64 -1 63 63 63 -1 -1 -1 -1 63 63 63 63 -1 -1 63 -1 -1 64 64 64 65 66 66 67 67 68 68 68 68 68 68 68 68 68 68 68 68 68 68 68 68 68 68 68 68 68 68 68 68 68 62 62 68 68 68 68 68 68 68 68 68 67 67 67 67 67 67 67 67 67 67 66 66
78 78 78 78 78 78 79 78 78 78 77 77 76 76 76 75 75 75 75 74 73 73 72 72 71 71 70 70 70 70 70 70 70 70 70 71 71 71 72 72 72 72 72 72 72 72 72 72 72 72 72 72 71 71 71 71 71 72 72 72 72 72 72 72 73 73 73 73 73 73 73 72 71 71 70 68 67 66 65 66 66 67 68 68 69 70 71 71 71 71 71 71 71 71 71 71 71 71 71 72 72 72 72 72 72 73 73 73 73 74 74 74 74 74 74 74 74 74 74 74 74 73 73 73 73 72 72 72 71 71 71 69 68 68 67 65 64 64 63 63 -1 -1 -1 -1 -1 -1 -1 -1 -1 -1 -1 -1 63 63 63 63 64 64 64 64 64 64 64 64 64 64 64 64 64 64 64 64 64 64 64 64 64 64 64 -1 -1 63 63 -1 -1 63 63 63 -1 -1 -1 63 63 63 63 63 63 -1 -1 -1 64 64 64 65 66 66 67 67 68 68 68 68 68 68 68 68 68 68 68 68 68 68 68 68 68 68 68 68 68 68 68 68 68 62 62 68 68 68 68 68 68 68 67 67 67 67 67 67 67 67 67 67 67 67 66 66
78 78 78 78 78 78 78 78 78 77 77 77 77 76 76 76 75 75 75 74 74 73 72 72 71 71 70 70 70 70 70 70 70 70 70 71 71 71 72 72 72 72 72 72 72 72 72 72 72 72 72 72 72 72 72 72 72 72 72 72 72 72 73 73 73 73 73 73 73 73 73 72 71 71 70 69 65 65 66 66 67 68 68 69 70 70 71 71 71 71 70 71 71 71 71 71 71 71 71 71 71 72 72 72 72 73 73 73 74 74 74 74 74 74 74 74 74 74 74 74 73 73 73 73 72 72 72 71 71 70 70 69 67 66 65 64 64 63 63 63 -1 -1 -1 -1 -1 -1 -1 -1 -1 -1 -1 -1 63 63 64 64 64 64 64 64 64 64 64 64 64 64 64 64 64 64 64 64 64 64 64 64 64 64 64 64 -1 63 63 -1 -1 63 63 63 63 -1 63 63 63 63 63 63 -1 -1 -1 -1 64 64 64 65 66 67 67 67 68 68 68 68 68 68 68 68 68 68 68 68 68 68 68 68 68 68 68 68 68 68 68 68 68 62 62 68 68 68 68 68 67 67 67 67 67 67 67 67 67 67 67 67 67 67 66 66
78 78 78 78 78 78 78 78 78 77 77 77 77 76 76 76 76 75 75 74 74 73 73 72 72 71 71 70 70 70 70 70 70 70 70 71 71 71 72 72 72 72 72 72 72 73 73 73 72 72 72 72 72 72 72 72 72 73 73 73 73 73 73 73 73 73 73 73 73 73 73 72 71 71 70 69 65 65 65 65 68 68 69 69 70 70 71 71 71 71 70 71 71 71 71 71 71 71 71 71 71 71 72 72 72 73 73 73 74 74 74 74 74 74 74 74 74 74 74 73 73 73 73 72 72 72 71 71 70 70 69 68 66 65 64 64 64 63 63 -1 -1 -1 -1 -1 -1 -1 -1 -1 -1 -1 -1 -1 63 63 64 64 64 64 64 64 64 64 64 64 64 64 64 64 64 64 64 64 64 64 64 64 64 64 64 64 -1 -1 63 63 63 63 63 -1 -1 63 63 63 -1 -1 63 -1 -1 -1 63 64 64 64 65 65 66 67 67 68 68 68 68 68 68 68 68 68 68 68 68 68 68 68 68 68 68 68 68 68 68 68 68 68 68 62 62 68 68 68 68 67 67 67 67 67 67 67 67 67 67 67 67 67 67 67 66 67
78 78 78 78 78 78 78 78 78 77 77 77 77 77 76 76 76 75 75 74 74 73 73 72 72 71 71 71 70 70 70 70 70 70 70 71 71 71 72 72 72 72 73 73 73 73 73 73 73 73 72 72 72 72 72 73 73 73 73 73 73 73 73 73 73 73 73 73 73 73 72 72 71 71 70 69 65 65 65 65 65 69 70 70 70 71 71 71 71 71 70 70 70 70 70 70 70 70 70 71 71 71 72 72 72 73 73 73 74 74 74 74 74 74 74 74 74 74 74 73 73 73 72 72 72 71 71 70 70 69 69 67 66 64 64 63 63 63 -1 -1 -1 -1 -1 -1 -1 -1 -1 -1 -1 -1 -1 63 63 -1 64 64 64 64 64 64 64 64 64 64 64 64 64 64 64 64 64 64 64 64 64 64 64 64 64 64 -1 63 63 63 63 63 63 -1 -1 -1 -1 63 -1 -1 63 -1 -1 63 63 64 64 64 65 66 66 67 67 68 68 68 68 68 68 68 68 68 68 68 68 68 68 68 68 68 68 68 68 68 68 68 68 68 68 62 62 68 68 68 68 67 67 67 67 67 67 67 67 67 67 67 67 67 67 67 67 67
78 78 78 78 78 78 78 78 78 77 77 77 77 77 77 76 76 76 75 75 74 74 73 72 72 72 71 71 71 71 70 71 71 71 71 71 71 72 72 72 72 72 73 73 73 73 73 73 73 73 72 73 73 73 73 73 73 73 74 74 74 74 74 73 73 73 73 73 73 73 72 72 71 71 70 69 69 65 65 65 65 66 70 70 70 71 71 71 71 71 70 70 70 70 71 71 71 71 71 71 71 72 72 72 73 73 73 74 74 74 75 75 75 75 75 74 74 74 74 73 73 73 72 72 71 71 70 69 68 68 67 66 65 64 64 63 63 63 -1 -1 -1 -1 -1 -1 -1 -1 -1 -1 -1 -1 63 63 63 63 64 64 64 64 64 64 64 64 64 64 64 64 64 64 64 64 64 64 64 64 64 64 64 64 64 64 63 63 63 63 -1 63 63 -1 -1 -1 -1 -1 -1 -1 -1 -1 -1 63 63 -1 64 64 65 65 66 67 67 68 68 68 68 68 68 68 68 68 68 68 68 68 68 68 68 68 68 68 68 68 68 68 68 68 68 68 68 68 68 68 60 59 67 67 67 67 67 67 67 67 67 67 67 67 67 67 67 67
78 78 78 78 78 78 78 78 77 77 77 77 77 77 77 76 76 76 75 75 74 74 73 73 72 72 71 71 71 71 71 71 71 71 71 72 72 72 72 72 72 72 72 73 73 73 73 73 73 73 73 73 73 73 73 73 74 74 74 74 74 74 74 74 74 73 73 73 73 73 72 72 72 71 71 70 69 69 65 65 66 70 70 70 70 71 71 71 71 71 71 71 71 71 71 71 71 71 71 72 72 72 72 73 73 73 73 74 74 75 75 75 75 75 75 75 75 74 74 74 73 73 72 72 71 71 70 69 67 67 66 65 64 64 63 63 63 63 -1 -1 -1 -1 -1 -1 -1 -1 63 63 63 63 63 63 63 64 64 64 64 64 64 64 64 64 64 64 64 64 64 64 64 64 64 64 64 64 64 64 64 64 63 -1 63 63 63 -1 -1 -1 63 63 -1 -1 -1 -1 -1 -1 -1 -1 -1 -1 -1 63 64 64 64 65 66 67 67 67 68 68 68 68 68 68 68 68 68 68 68 68 68 68 68 68 68 68 68 68 68 68 68 68 68 68 68 68 68 60 60 59 67 67 67 67 67 67 67 67 67 67 67 67 67 67 67 67
79 78 78 78 78 78 78 77 77 77 77 77 77 77 77 76 76 76 76 75 74 74 73 73 73 72 72 72 72 71 71 71 72 72 72 72 72 72 72 72 72 72 72 72 73 73 73 73 73 73 73 73 73 73 74 74 74 74 74 74 74 74 74 74 74 74 73 73 73 73 73 72 72 71 71 71 70 70 69 69 70 70 66 66 71 71 71 71 71 71 71 71 71 71 71 71 71 71 72 72 72 73 73 73 73 74 74 74 74 75 75 75 75 75 75 75 75 75 75 74 73 73 72 71 71 70 70 68 67 66 65 64 64 63 63 63 63 63 -1 -1 -1 -1 -1 -1 63 63 63 63 63 63 63 63 64 64 64 64 64 64 64 64 64 64 64 64 64 64 64 64 64 64 64 64 64 64 64 64 63 63 -1 -1 -1 -1 -1 -1 -1 -1 -1 -1 -1 -1 -1 -1 62 -1 -1 -1 -1 -1 -1 -1 63 64 64 65 66 66 67 67 67 68 68 68 68 68 68 68 68 68 68 68 68 68 68 68 68 68 68 68 68 68 68 68 68 68 68 68 68 61 60 59 67 67 67 67 67 67 67 67 67 67 67 67 67 67 67 67
79 79 78 78 78 78 78 77 77 77 77 77 77 77 77 76 76 76 76 75 75 74 74 73 73 73 72 72 72 72 72 72 72 72 72 72 72 73 73 73 72 72 72 72 65 65 73 73 73 73 73 73 74 74 74 74 75 75 75 75 75 75 74 74 74 74 73 73 73 73 73 72 72 72 71 71 71 70 70 70 70 70 71 71 71 71 71 71 71 71 71 71 71 71 71 71 71 72 72 73 73 73 73 73 74 74 74 74 75 75 75 75 76 76 76 76 75 75 75 74 73 73 72 71 71 70 69 67 66 65 64 64 63 63 63 63 63 -1 -1 -1 -1 -1 -1 -1 63 63 64 64 64 64 64 64 64 64 64 64 64 64 64 64 64 64 64 64 64 64 64 64 64 64 64 64 64 64 64 63 -1 -1 63 63 63 -1 -1 -1 -1 -1 -1 63 -1 -1 -1 -1 -1 -1 -1 -1 -1 -1 -1 -1 63 64 64 64 65 66 67 67 67 67 67 67 68 68 68 68 68 68 68 68 68 68 68 68 68 68 68 68 68 68 68 68 68 68 68 68 67 61 67 67 67 67 67 67 67 67 67 67 67 67 67 67 67 67 67 67
77 77 77 77 77 77 77 77 77 77 76 76 76 76 76 76 76 76 76 75 75 74 74 73 73 73 73 72 72 72 72 72 72 72 72 72 73 73 73 73 73 73 73 73 73 73 73 73 73 73 73 73 74 74 74 75 75 75 75 75 75 75 75 74 74 74 73 73 73 73 73 72 72 72 71 71 71 71 70 70 70 70 71 67 67 67 68 68 69 70 70 70 70 70 70 71 71 72 73 73 73 73 74 74 74 74 74 75 75 75 76 76 76 76 76 76 76 75 75 74 73 73 72 71 70 69 68 67 65 64 64 64 63 63 63 63 63 63 63 63 63 63 63 63 63 64 64 64 64 64 64 64 64 64 64 64 64 64 64 64 64 64 64 64 64 64 64 64 64 64 64 64 64 64 64 63 -1 -1 63 63 -1 -1 63 63 63 -1 -1 -1 -1 -1 -1 -1 -1 -1 -1 -1 -1 -1 -1 -1 63 64 64 64 65 66 67 67 67 67 67 67 67 67 67 68 68 68 68 68 68 68 68 68 68 68 68 68 68 68 68 68 68 68 68 68 67 67 67 67 67 67 67 67 67 67 67 67 67 67 67 67 67 67 67 67
75 76 76 76 76 77 77 77 77 76 76 76 76 76 76 76 76 76 75 75 75 74 74 74 73 73 73 73 73 73 72 72 72 73 73 73 73 73 73 73 73 73 73 73 73 73 73 73 73 73 73 74 74 74 75 75 75 75 75 75 75 75 75 74 74 74 74 73 73 73 73 72 72 72 71 71 71 71 70 70 70 71 71 67 67 67 68 68 68 68 69 70 70 70 70 71 71 72 73 73 74 74 74 74 74 74 75 75 75 76 76 76 76 76 77 76 76 76 75 74 74 73 72 70 69 68 67 66 65 64 64 63 63 63 63 63 63 63 63 63 63 63 63 63 64 64 64 64 64 64 64 64 64 64 64 64 64 64 64 64 64 64 64 64 64 64 64 64 64 64 64 64 64 64 -1 -1 -1 -1 -1 -1 -1 -1 63 63 63 -1 -1 -1 -1 -1 -1 -1 -1 -1 -1 -1 -1 -1 -1 -1 63 64 64 64 65 66 66 67 67 67 67 67 67 67 67 67 68 68 68 68 68 68 68 68 68 68 68 68 68 68 68 68 68 68 68 68 67 67 67 67 67 67 67 67 67 67 67 67 67 67 67 67 67 67 67 67
74 74 75 75 76 76 77 76 76 76 76 76 76 76 76 76 76 75 75 75 75 74 74 74 74 73 73 73 73 73 73 73 73 73 73 73 73 73 73 73 73 73 73 73 73 73 73 73 73 73 73 74 74 74 75 75 75 75 75 75 75 75 75 75 74 74 74 73 73 73 73 72 72 72 71 71 71 71 70 70 70 71 71 70 68 68 68 68 68 68 68 69 69 70 70 71 71 72 74 74 74 74 75 75 75 75 75 75 76 76 76 76 77 77 77 77 76 76 76 75 74 73 72 70 68 67 66 65 64 64 64 63 63 63 63 63 63 64 64 64 64 64 64 64 64 64 64 64 64 64 64 64 64 64 64 64 64 64 64 64 64 64 64 64 64 64 64 64 64 64 64 64 64 64 -1 63 63 63 63 63 -1 -1 63 63 63 -1 -1 -1 -1 -1 -1 -1 -1 -1 -1 -1 -1 -1 -1 -1 -1 64 64 64 65 65 66 66 67 67 67 67 67 67 67 67 67 67 68 68 68 68 68 68 68 68 68 68 68 68 68 68 68 68 68 68 67 67 67 67 67 67 67 67 67 67 67 67 67 68 68 67 67 67 67 67
72 73 73 74 75 76 76 76 76 76 76 76 76 76 76 76 75 75 75 75 75 74 74 74 74 74 74 73 73 73 73 73 73 73 73 73 73 73 74 73 73 73 64 73 73 73 73 73 73 73 74 74 74 75 75 75 75 75 76 75 75 75 75 75 74 74 74 74 73 73 73 72 72 72 71 71 71 71 70 71 71 71 71 70 69 69 69 68 68 68 68 69 69 70 70 71 71 72 74 74 74 75 75 75 75 75 75 76 76 76 76 77 77 77 77 77 77 76 76 75 74 73 72 70 68 66 65 65 64 64 63 63 63 63 63 63 64 64 64 64 64 64 64 64 64 64 64 64 64 64 64 64 64 64 64 64 64 64 64 64 64 64 64 64 64 64 64 64 64 64 64 64 64 63 -1 -1 63 -1 63 63 -1 -1 63 63 63 -1 -1 -1 -1 -1 -1 -1 -1 -1 -1 -1 -1 -1 -1 -1 -1 64 64 64 64 65 66 66 66 67 67 67 67 67 67 67 67 67 67 67 67 68 68 68 68 68 68 68 68 68 68 68 68 68 68 68 67 67 67 67 68 68 68 68 68 68 68 68 68 68 68 67 67 67 67 67
72 73 73 74 74 75 76 76 75 75 75 75 75 75 75 75 75 75 75 75 75 74 74 74 74 74 74 73 73 73 73 73 73 73 73 73 73 73 74 74 73 73 73 73 73 73 73 73 73 74 74 74 75 75 75 75 75 75 76 75 75 75 75 75 75 74 74 74 73 73 73 72 72 72 71 71 71 71 70 70 71 71 71 70 70 69 69 69 69 68 68 69 69 70 70 71 72 73 74 75 75 75 75 75 75 76 76 76 76 76 76 76 77 77 77 77 76 76 76 75 74 73 72 70 68 66 65 65 64 64 64 64 63 63 63 64 64 64 65 65 65 65 65 65 64 64 64 64 64 64 64 64 64 64 64 64 64 64 64 64 64 64 64 64 64 64 64 64 64 64 64 64 64 64 64 64 64 64 64 64 64 64 64 63 -1 -1 -1 -1 -1 -1 -1 -1 -1 -1 -1 -1 -1 -1 -1 63 63 64 64 64 65 65 66 66 66 67 67 67 67 67 67 67 67 67 67 68 68 68 68 68 68 68 68 68 68 68 68 68 68 68 68 67 67 67 67 67 67 67 67 67 67 67 67 67 67 67 67 67 67 67 67 66
72 72 72 73 74 74 75 75 75 75 75 75 75 75 75 75 75 75 75 75 75 75 74 74 74 74 74 73 73 73 73 73 73 73 73 73 73 73 74 74 73 73 73 73 73 73 73 74 74 74 74 74 75 75 75 75 75 75 76 76 76 76 75 75 75 75 74 74 74 73 73 73 72 72 71 71 71 71 70 70 71 71 71 70 70 70 69 69 69 68 68 68 70 70 70 71 72 73 75 75 75 75 76 76 76 76 76 76 76 76 76 76 76 76 77 76 76 75 75 74 73 73 72 69 68 66 65 65 64 64 64 64 64 64 64 64 64 65 65 65 65 65 65 65 65 65 65 64 64 64 64 64 64 64 64 64 64 64 64 64 64 64 63 64 64 64 64 64 64 64 64 64 64 64 64 64 64 64 64 64 64 64 64 64 -1 -1 -1 -1 -1 -1 -1 -1 -1 -1 -1 -1 -1 63 63 63 64 64 64 65 65 66 66 66 67 67 67 67 67 67 67 67 67 67 68 68 68 68 68 68 68 68 68 68 68 68 68 68 68 68 67 67 67 67 67 67 67 67 67 67 67 67 67 67 67 67 67 67 67 67 66 66
72 72 72 73 73 74 75 75 74 74 74 74 74 75 75 75 75 75 75 75 75 75 75 74 74 74 74 74 73 73 73 73 73 73 73 73 73 73 74 74 73 73 73 73 73 73 74 74 74 74 74 75 75 75 75 75 75 76 76 76 76 76 76 75 75 75 74 74 74 74 73 73 72 72 71 71 71 70 70 70 70 71 71 70 70 70 70 70 69 69 68 69 70 70 71 71 72 73 75 75 76 76 76 76 76 76 76 76 76 76 76 76 76 76 76 76 75 75 75 74 73 72 72 69 67 66 65 65 64 64 64 64 64 64 65 65 65 66 66 66 66 66 66 66 65 65 65 65 64 64 64 64 64 64 64 64 64 64 64 64 64 64 63 64 64 64 64 64 64 64 64 64 64 64 64 64 64 64 64 64 64 64 64 64 -1 -1 -1 -1 -1 -1 -1 -1 -1 -1 -1 -1 63 -1 -1 64 64 64 64 65 65 66 66 66 67 67 67 67 67 67 67 67 67 68 68 68 68 68 68 68 68 68 68 68 68 68 68 68 68 67 67 67 67 67 67 67 67 67 67 67 67 67 67 67 67 67 67 67 67 67 66 66
71 71 71 72 73 73 74 74 74 74 74 74 74 74 75 75 75 75 75 75 75 75 75 75 74 74 74 74 73 73 73 73 73 73 73 73 73 74 74 74 74 73 73 73 74 74 74 74 74 74 75 75 75 75 75 75 76 76 76 76 76 76 76 76 75 75 75 74 74 74 73 73 72 72 71 71 71 70 70 70 70 71 71 71 70 70 70 70 69 69 69 70 70 71 71 71 72 74 75 76 76 76 77 77 77 77 77 76 76 76 76 76 76 76 76 75 75 75 75 74 73 72 71 69 67 66 65 64 64 64 64 64 65 65 66 66 66 66 67 66 66 66 66 66 66 66 65 65 65 64 64 64 64 64 64 64 64 64 64 64 64 -1 -1 63 64 64 64 64 64 64 64 64 64 64 64 64 64 64 64 64 64 64 64 64 -1 -1 -1 -1 -1 -1 -1 -1 -1 -1 -1 63 63 63 64 64 64 64 65 65 66 66 66 67 67 67 67 67 67 67 67 67 67 68 68 68 68 68 68 68 68 68 68 68 68 68 68 68 67 67 67 67 67 67 67 67 67 67 67 67 67 67 67 66 66 66 66 66 66 66 66 66
71 71 71 72 73 73 74 74 74 73 73 74 74 74 74 75 75 75 75 75 75 75 75 75 74 74 74 74 74 74 73 73 73 73 73 73 73 74 74 74 74 73 73 73 74 74 74 74 74 74 75 75 75 75 75 75 75 75 76 76 76 76 76 76 75 75 75 74 74 74 74 73 72 72 71 71 71 71 70 70 71 71 71 71 71 71 70 69 69 69 69 70 71 71 71 72 73 74 75 76 76 76 76 76 76 76 76 76 76 75 75 75 75 75 75 74 74 74 73 73 72 71 71 69 67 66 65 64 64 64 64 65 65 66 66 66 67 67 67 67 67 67 67 66 66 66 66 65 65 65 64 64 64 64 64 64 64 64 64 64 64 -1 -1 63 64 64 64 64 64 64 64 64 64 64 64 64 64 64 64 64 64 65 65 64 64 -1 63 63 63 63 63 -1 63 63 -1 63 63 64 64 64 64 65 65 66 66 66 66 67 67 67 67 67 67 67 67 67 68 68 68 68 68 68 68 68 68 68 68 68 68 68 68 67 67 67 67 67 67 67 67 67 67 67 67 67 67 67 67 66 66 66 66 66 66 66 66 66
71 71 71 72 73 73 74 74 73 73 73 73 74 74 74 74 75 75 75 75 75 75 75 75 75 74 74 74 74 74 74 74 73 73 73 73 73 74 74 74 74 73 73 74 74 74 74 74 74 74 74 75 75 75 75 75 75 75 76 76 76 76 76 76 75 75 75 75 74 74 74 73 73 72 71 71 71 71 71 71 71 71 71 71 71 71 69 69 69 69 71 71 71 71 72 72 73 74 75 76 76 76 76 76 76 76 76 76 75 75 75 75 74 74 74 74 73 73 72 72 71 71 70 68 67 66 64 64 64 64 64 65 65 66 67 67 67 67 67 67 67 67 67 67 66 66 66 65 65 65 65 64 64 64 64 64 64 64 64 64 64 64 -1 64 64 64 64 64 64 64 64 64 64 64 64 64 65 65 65 65 65 65 66 64 64 64 63 -1 -1 63 63 -1 63 63 -1 64 64 64 64 64 65 65 65 66 66 66 67 67 67 67 67 67 67 67 67 68 68 68 68 68 68 68 68 68 68 68 68 68 68 68 68 67 67 67 67 67 67 67 67 67 67 67 67 67 67 67 66 66 67 67 67 66 66 66 66 66
71 71 72 72 73 73 74 73 73 73 73 73 74 74 74 74 75 75 75 75 75 75 75 75 75 75 74 74 74 74 74 74 74 73 73 73 73 74 74 74 74 73 73 74 74 74 74 74 74 74 74 75 75 75 75 75 75 75 75 76 76 76 76 76 76 75 75 75 74 74 74 73 73 72 72 71 71 71 71 71 71 71 71 71 71 71 69 69 69 71 71 71 72 72 72 73 74 75 76 76 76 76 76 76 76 76 76 75 75 75 74 74 74 74 73 73 72 72 71 71 70 70 70 68 66 65 64 64 64 64 64 65 66 66 67 67 68 68 68 68 68 67 67 67 67 66 66 66 65 65 65 64 64 64 64 64 64 64 64 64 64 64 63 64 64 64 64 64 64 64 64 64 64 64 64 65 65 66 66 66 66 66 66 65 64 64 64 64 64 64 64 64 64 64 64 64 64 64 64 65 65 65 66 66 66 66 67 67 67 67 67 67 67 67 68 68 68 68 68 68 68 68 68 68 68 68 68 68 68 68 67 67 67 67 67 67 67 67 67 67 67 67 67 67 67 66 66 67 67 67 67 67 67 67 67 66
71 71 72 72 73 73 73 73 73 73 73 73 73 74 74 74 74 75 75 75 75 75 75 75 75 75 75 74 74 74 74 74 74 74 73 73 74 74 74 74 73 73 73 74 74 74 74 74 74 74 74 74 75 75 75 75 75 75 75 76 76 76 76 76 76 76 76 75 75 74 74 73 73 72 72 72 71 71 71 71 71 71 72 72 72 71 71 71 71 71 71 72 72 72 73 73 74 75 76 76 76 76 76 76 76 75 75 75 74 74 74 74 73 73 73 72 72 71 71 70 70 69 69 67 66 65 64 64 64 65 65 65 66 67 68 68 68 68 68 68 68 68 68 67 67 67 66 66 66 65 65 65 64 64 64 64 64 64 64 64 64 64 -1 64 64 64 64 64 64 64 64 64 64 64 65 65 66 66 67 67 67 67 67 66 65 64 64 64 64 64 64 64 64 64 64 64 64 65 65 65 66 66 66 66 66 67 67 67 67 67 67 67 67 67 68 68 68 68 68 68 68 68 68 68 68 68 68 68 68 68 67 67 67 67 67 67 67 67 67 67 67 66 66 66 66 66 66 67 67 67 67 67 67 67 67 67
71 72 72 72 73 73 73 73 73 73 73 73 73 74 74 74 75 75 75 75 75 75 75 75 75 75 75 74 74 74 74 74 74 74 73 73 74 74 74 74 73 73 73 74 74 74 74 74 74 74 74 74 75 75 75 75 75 75 75 76 76 76 76 76 76 76 75 75 74 74 74 73 73 72 72 72 71 71 71 71 71 71 72 72 72 72 72 72 72 72 72 72 72 73 73 73 74 74 75 75 75 75 75 75 75 75 75 74 74 73 73 73 72 72 72 71 70 69 68 68 68 67 67 66 65 65 64 65 65 65 65 66 67 67 68 68 68 69 69 68 68 68 68 67 67 67 66 66 66 65 65 65 65 64 64 64 64 64 64 64 64 64 64 64 64 64 64 64 64 64 64 64 64 65 66 66 66 67 67 67 67 67 67 67 66 65 64 64 64 64 64 64 64 64 64 65 65 65 66 66 66 66 66 66 67 67 67 67 67 67 67 67 67 67 68 68 68 68 68 68 68 68 68 68 68 68 68 68 68 68 67 67 67 67 67 67 67 67 67 67 67 67 66 66 66 66 66 67 67 67 67 67 67 67 67 67
71 72 72 72 73 73 74 73 73 73 73 73 74 74 74 74 75 75 75 75 75 75 75 75 75 75 75 75 74 74 74 74 74 74 73 74 74 74 74 74 73 73 73 73 74 74 74 74 74 74 74 74 75 75 75 75 75 75 75 76 76 76 76 76 76 76 75 75 74 74 74 73 73 72 72 72 72 71 71 71 71 72 72 72 72 72 72 72 72 72 72 72 73 73 73 73 74 74 74 74 74 74 74 74 74 74 74 74 73 73 72 72 71 71 71 69 68 67 66 66 66 66 65 65 65 64 64 65 65 66 66 67 67 68 68 69 69 69 69 69 68 68 68 67 67 67 66 66 66 66 65 65 65 64 64 64 64 64 64 64 64 64 64 64 64 64 64 64 64 64 64 64 64 65 66 67 67 67 68 68 68 68 68 67 67 66 65 65 65 65 65 65 65 65 65 65 66 66 66 66 66 66 66 67 67 67 67 67 67 67 67 67 67 68 68 68 68 68 68 68 68 68 68 68 68 68 68 68 68 68 68 68 68 68 68 67 67 67 67 67 67 67 66 67 67 67 67 67 67 67 67 67 67 67 67 67
72 72 72 73 73 73 74 74 73 73 73 74 74 74 74 74 75 75 75 75 75 75 75 75 75 75 75 75 74 74 74 74 74 74 74 74 74 74 74 73 73 73 73 73 74 74 74 74 74 74 74 74 74 75 75 75 75 75 76 76 76 76 76 76 76 75 75 75 74 74 74 73 73 72 72 72 72 71 71 71 72 72 72 72 72 72 72 72 72 72 73 73 73 73 73 73 74 74 74 74 74 74 74 74 74 74 74 73 72 72 71 71 70 70 70 68 67 65 64 64 64 64 64 64 64 64 64 65 65 66 67 67 68 68 69 69 69 69 69 69 69 68 68 68 67 67 67 66 66 66 65 65 65 64 64 64 64 64 64 64 64 64 64 64 64 64 64 64 64 64 64 64 65 66 67 67 67 68 68 68 68 68 68 68 67 67 66 66 66 65 65 65 66 66 66 66 66 66 66 66 66 67 67 67 67 67 67 67 67 67 67 67 67 68 68 68 68 68 68 68 68 68 68 68 68 68 68 68 68 68 68 68 68 68 68 68 67 67 67 67 67 67 67 67 67 67 67 67 67 67 67 67 67 67 67 67
72 72 73 73 73 73 74 74 74 74 74 74 74 74 74 74 75 75 75 75 75 75 75 75 75 75 75 75 74 74 74 74 74 74 74 74 74 74 74 73 73 73 73 73 74 74 74 74 74 74 74 74 74 75 75 75 75 75 76 76 76 76 76 76 76 75 75 75 74 74 74 73 73 72 72 72 72 72 71 72 72 72 72 72 72 72 72 72 73 73 73 73 73 73 73 73 73 74 74 74 74 74 73 73 73 73 73 72 72 71 70 70 70 69 69 67 65 64 63 63 63 63 63 64 64 64 64 65 66 67 68 68 69 69 69 69 69 69 70 69 69 69 68 68 67 67 67 66 66 66 65 65 65 65 64 64 64 64 64 64 64 64 64 64 64 64 64 64 64 64 64 64 65 66 67 67 68 68 68 68 68 68 68 68 68 67 67 67 66 66 66 66 66 66 66 66 67 67 67 67 67 67 67 67 67 67 67 67 67 67 67 67 67 68 68 68 68 68 68 68 68 68 68 68 68 68 68 68 68 68 68 68 68 68 68 68 68 67 67 67 67 67 67 67 67 67 67 67 67 67 67 67 67 67 67 67
73 73 73 73 73 74 74 74 74 74 74 74 74 75 75 75 75 75 76 76 76 76 76 76 75 75 75 75 75 75 74 74 74 74 74 74 74 74 74 74 74 73 73 74 74 74 74 74 74 74 74 74 74 75 75 75 75 75 75 76 76 76 76 76 75 75 75 75 74 74 73 73 73 72 72 72 72 72 71 72 72 72 72 72 72 72 72 72 72 72 72 72 72 72 72 72 72 72 72 72 71 71 71 71 70 70 70 69 69 68 68 68 67 67 67 66 65 64 63 63 63 63 63 64 64 64 65 66 66 67 68 69 69 69 69 69 70 70 70 69 69 69 68 68 67 67 67 66 66 66 65 65 65 65 64 64 64 64 64 64 64 64 64 64 64 64 64 64 64 64 64 65 66 67 67 68 68 68 68 69 69 69 69 68 68 67 67 67 67 66 66 66 66 66 67 67 67 67 67 67 67 67 67 67 67 67 67 67 67 67 67 67 67 68 68 68 68 68 68 68 68 68 68 68 68 68 68 68 68 68 68 68 68 68 68 68 68 68 67 67 67 67 67 67 67 67 67 67 67 67 67 67 66 66 66 66
73 73 74 74 74 74 74 74 74 74 74 75 75 75 76 76 76 76 76 76 76 76 76 76 76 76 75 75 75 75 75 75 75 74 74 74 74 74 74 74 74 74 74 74 74 74 74 74 74 74 74 74 74 74 75 75 75 75 75 75 75 76 76 75 75 75 75 75 74 74 73 73 73 72 72 72 72 72 71 71 71 71 71 71 71 71 71 71 72 72 72 72 71 71 71 71 71 71 70 70 69 69 68 68 68 68 67 67 67 66 66 66 66 65 65 64 64 63 63 63 63 63 63 64 64 65 66 66 67 68 69 69 69 69 70 70 70 70 70 70 69 69 68 68 68 67 67 66 66 66 65 65 65 65 64 64 64 64 64 64 64 64 64 64 64 64 64 64 64 64 64 65 66 67 68 68 68 68 69 69 69 69 69 68 68 67 67 67 67 67 66 67 67 67 67 67 67 67 67 67 67 67 67 67 67 67 67 67 67 67 67 67 67 68 68 68 68 68 68 68 68 68 68 68 68 68 68 68 68 68 68 68 68 68 68 68 68 68 68 67 67 67 67 67 67 67 66 66 66 66 66 66 66 66 66 66
74 74 74 74 74 74 74 74 74 74 75 75 75 76 76 76 76 76 76 76 76 76 76 76 76 76 76 76 76 76 76 76 75 75 75 74 74 74 74 74 74 74 74 74 74 74 74 74 74 74 74 74 74 74 74 75 75 75 75 75 75 75 75 75 75 75 75 74 74 74 73 73 72 72 72 72 72 72 71 71 71 71 71 71 71 71 71 71 71 71 71 71 71 71 71 70 70 69 69 68 68 67 66 66 65 65 64 64 65 65 65 64 64 64 64 64 63 63 -1 63 63 63 63 64 64 65 66 67 67 68 69 69 69 69 70 70 70 70 70 70 69 69 69 68 68 67 67 66 66 66 65 65 65 65 65 64 64 64 64 64 64 64 64 64 64 64 64 64 64 64 65 66 67 67 68 68 68 69 69 69 69 69 69 68 68 68 67 67 67 67 67 67 67 67 67 67 67 67 67 67 67 67 67 67 67 67 67 67 67 67 67 67 67 68 68 68 68 68 68 68 68 68 68 68 68 68 68 68 68 68 68 68 68 68 68 68 68 68 68 68 67 67 67 67 67 67 66 66 66 66 66 66 66 66 -1 -1
74 74 75 75 75 75 75 75 75 75 75 75 76 76 77 77 77 77 77 77 77 76 76 76 76 76 76 76 76 76 77 76 76 75 75 75 75 74 74 74 74 74 74 74 74 74 74 74 74 74 74 74 74 74 74 75 75 75 75 75 75 75 75 75 75 75 75 74 74 73 73 73 72 72 72 72 72 72 71 71 71 71 71 71 71 71 71 71 71 71 70 70 70 70 70 69 69 68 68 67 66 66 65 64 64 64 64 64 64 64 64 63 63 63 63 63 -1 -1 -1 -1 63 63 63 64 65 66 67 68 68 68 69 69 69 70 70 70 70 70 70 70 69 69 69 68 68 67 67 66 66 66 65 65 65 65 65 64 64 64 64 64 64 64 64 64 64 64 64 64 64 65 65 66 67 67 68 68 69 69 69 69 69 69 69 69 68 68 67 67 67 67 67 67 67 67 67 67 67 67 67 67 67 67 67 67 67 67 67 67 67 67 67 67 67 68 68 68 68 68 68 68 68 68 68 68 68 68 68 68 68 68 68 68 68 68 68 68 68 68 68 68 68 67 67 67 67 67 66 66 66 66 66 66 66 -1 -1 -1
74 74 75 75 75 75 74 75 75 75 75 75 76 76 77 77 77 77 77 77 77 76 76 76 76 76 76 76 76 76 77 76 76 75 75 75 75 75 74 74 74 74 74 74 74 74 74 74 74 74 74 74 74 74 74 74 75 75 75 75 75 75 75 75 75 75 75 74 74 74 73 73 73 72 72 72 72 72 71 71 71 71 71 70 70 70 70 70 70 70 70 69 69 68 68 68 68 68 68 67 66 66 65 64 64 64 64 64 64 63 63 63 63 63 63 -1 -1 -1 -1 63 63 63 64 64 65 66 67 68 68 69 69 69 70 70 70 70 70 70 70 70 69 69 69 68 68 67 67 66 66 66 65 65 65 65 65 64 64 64 64 64 64 64 64 64 64 64 64 64 65 66 66 67 67 68 68 69 69 69 69 69 69 69 69 69 68 68 67 67 67 67 67 67 67 67 67 67 67 67 67 67 67 67 67 67 67 67 67 67 67 67 67 67 67 67 67 67 68 68 68 68 68 68 68 68 68 68 68 68 68 68 68 68 68 68 68 68 68 68 68 68 67 67 67 67 67 66 66 66 66 66 66 66 66 66 -1 -1
74 74 74 74 74 74 74 75 75 75 75 75 76 76 76 76 76 76 76 76 76 77 77 76 76 76 76 76 76 76 76 76 76 75 75 75 75 75 74 74 74 74 74 74 74 74 74 74 74 74 74 74 74 74 74 74 74 75 75 75 75 75 75 75 75 75 75 74 74 74 73 73 73 72 72 72 72 71 71 71 71 70 70 70 70 70 70 69 69 69 69 68 67 66 66 66 66 67 67 67 66 66 65 65 64 64 64 64 63 63 63 63 63 -1 -1 -1 -1 -1 -1 63 63 64 64 65 66 67 68 68 68 69 69 69 70 70 70 70 70 70 70 70 69 69 69 68 68 67 67 67 66 66 65 65 65 65 65 64 64 64 64 64 64 64 64 64 64 64 64 65 66 66 67 67 68 68 69 69 69 69 69 69 69 69 69 69 68 68 67 67 67 67 67 67 67 67 67 67 67 67 67 67 67 67 67 67 67 67 67 67 67 67 67 67 67 67 67 67 67 67 67 68 68 68 68 68 68 68 68 68 68 68 68 68 68 68 68 68 68 68 68 68 67 67 67 67 67 66 66 66 66 66 66 66 66 66 66 66
74 74 74 74 74 74 74 74 75 75 75 75 76 76 76 76 76 76 76 76 76 77 77 77 77 77 77 76 76 76 76 76 76 76 75 75 75 75 75 74 74 74 74 74 74 74 74 74 74 74 74 74 74 74 74 74 74 74 75 75 75 75 75 75 75 75 75 74 74 74 73 73 73 73 72 72 72 71 71 71 71 70 70 70 69 69 69 69 68 68 68 67 66 65 64 65 65 66 67 66 66 66 65 65 64 64 64 64 63 63 -1 -1 -1 -1 -1 -1 -1 -1 -1 63 64 64 65 66 66 67 68 68 69 69 69 70 70 70 70 70 70 70 70 70 69 69 69 68 68 68 67 67 66 66 66 65 65 65 65 64 64 64 64 64 64 64 64 64 64 64 64 65 66 67 68 68 68 69 69 69 69 69 69 69 69 69 69 69 68 68 67 67 67 67 67 67 67 67 67 67 67 67 67 67 67 67 67 67 67 67 67 67 67 67 67 67 67 67 67 67 67 67 67 67 68 68 68 68 68 68 68 68 68 68 68 68 68 68 68 68 68 68 68 68 67 67 67 67 66 66 66 66 66 66 66 66 66 66 66 66
75 74 74 74 74 74 74 74 75 75 75 75 76 76 76 76 76 76 76 76 76 77 77 77 77 77 77 77 76 76 76 76 76 76 75 75 75 75 75 74 74 74 74 74 74 74 73 73 73 73 73 73 74 74 74 74 74 74 75 75 75 75 75 75 75 75 75 74 74 74 74 73 73 73 73 72 72 71 71 71 70 70 70 69 69 69 68 68 68 68 67 66 65 64 63 64 64 65 67 66 66 66 65 65 64 64 64 63 63 63 -1 -1 -1 -1 -1 -1 -1 -1 -1 63 64 65 66 67 67 68 68 68 69 69 70 70 70 70 70 70 70 70 70 70 69 69 69 68 68 68 67 67 66 66 66 65 65 65 65 64 64 64 64 64 64 64 64 64 64 64 64 66 67 67 68 68 69 69 69 69 69 69 70 69 69 69 69 69 68 67 67 67 67 67 67 67 67 67 67 67 67 67 67 67 67 67 67 67 67 67 67 67 67 67 67 67 67 67 67 67 67 67 67 67 67 68 68 68 68 68 68 68 68 68 68 68 68 68 68 68 68 68 68 68 67 67 66 66 66 66 66 66 66 66 66 66 66 66 66 66
75 -1 -1 75 75 75 74 75 75 75 75 75 76 76 76 76 76 76 76 76 76 76 76 76 76 76 76 76 76 76 76 76 76 76 75 75 75 75 75 74 74 74 74 74 73 73 73 73 73 73 73 73 73 73 73 74 74 74 74 74 74 74 74 74 74 74 74 74 74 73 73 73 73 73 73 72 72 71 71 71 70 70 69 68 68 67 66 66 66 66 65 64 64 63 -1 63 64 64 65 65 65 64 64 64 64 64 63 63 63 -1 -1 -1 -1 -1 -1 63 63 63 63 64 65 65 66 67 67 68 68 69 69 69 70 70 70 70 70 70 70 70 70 70 69 69 69 68 68 68 67 67 66 66 66 65 65 65 65 64 64 64 64 64 64 64 64 65 65 65 66 67 67 68 69 69 69 69 69 69 70 70 70 70 69 69 69 68 68 67 67 67 67 67 67 67 67 67 67 67 67 67 67 67 67 67 67 67 67 67 67 67 66 66 67 67 67 67 67 67 67 67 67 67 67 67 68 68 68 68 68 68 68 68 68 68 68 68 68 68 68 68 68 68 67 67 66 66 66 66 66 66 66 66 66 66 66 66 66 66
75 -1 -1 -1 75 75 75 75 74 75 75 75 76 76 76 76 76 76 76 76 76 76 76 76 76 76 76 76 76 76 76 76 76 76 76 75 75 75 75 74 74 74 74 73 73 73 73 73 73 73 73 73 73 73 73 73 73 73 73 73 74 74 74 74 74 73 73 73 73 73 73 73 73 73 73 72 72 71 71 70 70 69 69 68 67 66 65 65 64 64 64 63 63 -1 -1 -1 63 63 64 64 64 64 63 63 63 63 63 63 -1 -1 -1 -1 63 63 63 63 64 64 64 65 65 66 67 67 68 68 69 69 69 70 70 70 70 70 70 70 70 70 70 70 69 69 69 68 68 68 67 67 67 66 66 66 65 65 65 64 64 64 64 64 65 65 65 66 66 67 67 68 68 69 69 69 69 69 69 70 70 70 70 70 69 69 69 68 68 67 67 67 67 67 67 67 67 67 67 67 67 67 67 67 67 67 67 67 64 65 65 66 66 66 67 67 67 67 67 67 67 67 67 67 67 67 67 67 67 68 68 68 68 68 68 68 68 68 68 68 68 68 68 67 67 67 67 66 66 66 66 66 66 66 66 66 66 66 66 66
75 -1 -1 -1 75 75 73 -1 -1 73 75 75 75 75 76 75 75 75 75 75 75 76 76 76 76 76 76 76 76 76 76 76 76 76 76 75 75 75 75 74 74 74 74 73 73 73 73 73 73 73 73 73 73 73 73 73 73 73 73 73 73 73 73 73 73 73 73 73 73 73 73 73 73 73 73 72 72 71 71 70 70 69 69 67 66 65 64 63 63 63 63 -1 -1 -1 -1 -1 -1 -1 -1 -1 -1 -1 -1 -1 -1 -1 -1 -1 -1 -1 -1 63 63 64 64 64 64 65 65 66 66 67 67 67 68 68 69 69 69 70 70 70 70 70 70 70 70 70 70 69 69 69 69 69 68 68 67 67 67 66 66 66 65 65 65 65 64 64 64 65 65 65 66 66 67 67 68 68 69 69 69 69 70 70 70 70 70 70 70 70 69 69 68 68 68 67 67 67 67 67 67 67 67 67 67 67 67 67 67 67 67 67 64 64 64 64 65 65 66 66 67 67 67 67 67 67 67 67 67 67 67 67 67 67 67 67 67 68 68 68 68 68 68 68 68 68 67 67 67 67 67 67 67 67 66 66 66 66 66 66 66 66 66 66 66 66
76 76 -1 76 76 -1 -1 -1 -1 -1 73 75 75 75 75 75 75 75 75 75 75 75 75 75 75 75 75 75 75 75 76 76 76 76 76 75 75 75 75 74 74 74 73 73 73 73 73 73 73 73 73 73 73 73 73 73 73 72 72 72 72 72 72 72 72 72 72 72 72 72 72 72 72 72 73 72 72 71 71 70 70 69 69 67 65 64 -1 -1 -1 -1 -1 -1 -1 -1 -1 -1 -1 -1 -1 -1 -1 -1 -1 -1 -1 -1 -1 -1 -1 -1 -1 63 63 64 65 65 65 66 66 66 67 67 67 68 68 69 69 69 70 70 70 70 70 70 70 70 70 70 69 69 69 69 69 69 68 68 68 67 67 66 66 66 65 65 65 65 65 65 65 65 66 66 66 67 68 68 69 69 69 69 70 70 70 70 70 70 70 70 70 70 69 69 68 68 67 67 67 67 67 67 67 67 67 67 66 67 67 67 67 67 64 64 64 64 64 64 65 65 66 67 67 67 67 67 67 67 67 67 67 67 67 67 67 67 67 67 67 67 68 68 68 68 68 68 68 67 67 67 67 67 67 67 67 67 66 66 66 66 66 66 66 66 66 66 66 66
76 76 76 76 76 76 76 -1 -1 76 76 76 76 76 75 75 75 75 75 75 75 75 75 75 75 75 75 75 75 75 76 76 76 76 76 75 75 75 75 74 74 74 74 73 73 73 72 72 72 72 72 72 72 72 72 72 72 72 72 72 72 72 72 72 72 72 72 72 72 72 72 72 72 72 72 72 71 71 70 70 69 68 68 66 64 63 -1 -1 -1 -1 -1 -1 -1 -1 -1 -1 -1 -1 -1 -1 -1 -1 -1 -1 -1 -1 -1 -1 -1 -1 63 63 64 64 65 65 66 66 66 66 66 66 66 67 68 68 69 69 70 70 70 70 70 70 70 70 70 69 69 69 69 69 69 69 68 68 68 67 67 67 66 66 66 65 65 65 65 65 65 65 66 66 67 68 68 69 69 69 70 70 70 70 70 70 70 70 70 70 70 69 69 68 68 68 67 67 67 67 67 67 67 67 67 67 66 67 67 67 67 64 64 64 64 64 64 64 65 67 67 67 67 67 67 67 67 67 67 67 67 67 67 67 67 67 67 67 67 67 67 68 68 68 68 68 68 67 67 67 67 67 67 67 67 67 67 67 66 66 66 66 66 66 66 66 66 66
76 76 76 76 -1 -1 -1 -1 -1 -1 76 76 76 76 76 76 76 75 75 75 75 75 75 75 75 75 75 75 75 75 76 76 76 76 76 75 75 75 75 74 74 74 74 73 73 73 72 72 72 72 72 72 72 72 72 72 72 72 71 71 71 71 71 71 71 71 71 71 71 71 71 71 71 71 71 71 71 70 70 69 69 68 67 65 64 63 -1 -1 -1 -1 -1 -1 -1 -1 -1 -1 -1 -1 -1 -1 -1 -1 -1 -1 -1 -1 -1 -1 63 63 64 64 64 65 65 65 66 66 66 66 66 66 66 66 67 68 69 69 70 70 70 70 70 70 70 70 69 69 69 69 69 69 69 69 68 68 68 68 67 67 66 66 66 65 65 65 65 65 65 66 66 67 67 68 69 69 69 70 70 70 70 70 70 70 70 70 70 70 69 69 68 68 68 67 67 67 67 67 67 67 67 67 67 67 66 67 67 64 64 64 64 64 67 67 67 67 67 67 67 67 67 67 67 67 67 67 67 67 67 67 67 67 67 67 67 67 67 67 67 68 68 68 68 68 68 67 67 67 67 67 67 67 67 67 67 67 67 67 67 67 67 67 66 66 66 66
77 77 77 77 77 -1 -1 -1 -1 76 76 76 76 76 76 76 76 76 76 75 75 75 75 75 75 75 75 75 75 75 76 76 76 76 76 75 75 75 75 75 74 74 74 73 73 72 72 72 72 72 72 72 72 72 71 71 71 71 71 71 70 70 70 70 70 70 70 70 70 70 70 70 71 71 71 70 70 70 69 69 68 67 67 65 64 -1 -1 -1 -1 -1 -1 -1 -1 -1 -1 -1 -1 -1 -1 -1 -1 -1 -1 -1 -1 -1 -1 -1 63 64 64 64 65 65 66 66 66 66 66 66 66 65 65 66 67 68 69 69 69 70 70 70 70 70 70 69 69 69 69 69 69 69 69 69 69 68 68 68 67 66 66 66 66 66 65 65 65 65 65 66 67 67 68 68 69 69 70 70 70 70 70 70 70 70 71 70 70 69 69 69 68 68 67 67 67 67 67 67 67 67 67 67 67 67 66 67 67 64 64 64 67 67 67 67 67 67 67 67 67 67 66 66 66 66 67 67 67 67 67 67 67 67 67 67 67 67 67 67 67 68 68 68 68 68 68 67 67 67 67 67 67 67 67 67 67 67 67 67 67 67 67 67 67 66 -1 66
77 77 77 77 77 77 77 77 77 76 76 76 76 76 76 76 76 76 76 76 75 75 75 75 75 75 75 75 75 75 76 76 76 76 76 75 75 75 75 75 74 74 74 73 73 72 72 72 72 72 72 71 71 71 71 71 71 70 70 70 70 69 69 69 69 69 69 69 69 70 70 70 70 70 70 70 70 69 69 68 68 67 66 64 63 -1 -1 -1 -1 -1 -1 -1 -1 -1 -1 -1 -1 -1 -1 -1 -1 -1 -1 -1 -1 -1 -1 63 63 64 65 65 65 66 66 66 66 66 66 66 65 65 64 65 66 68 69 69 69 70 70 70 70 70 69 69 69 69 69 69 69 69 69 69 69 68 68 68 68 40 40 40 66 66 66 65 65 65 65 66 67 68 68 69 69 70 70 70 70 70 71 71 71 71 71 70 70 69 69 68 68 68 67 67 67 67 67 67 67 67 67 67 67 66 66 66 65 67 64 64 67 67 67 67 67 67 67 67 67 66 66 66 66 66 66 66 67 67 67 67 67 67 67 67 67 67 67 67 67 67 68 68 68 68 68 67 67 67 67 67 67 67 67 67 67 67 67 67 67 67 67 67 66 -1 -1 -1
78 78 78 77 77 77 77 77 77 77 76 76 76 76 76 76 76 76 76 76 76 75 75 75 75 75 75 75 75 76 76 76 76 76 76 76 76 75 75 75 75 74 74 74 73 73 72 72 72 72 72 71 71 71 71 71 70 70 70 69 68 67 67 67 67 67 67 67 67 67 67 68 68 69 69 69 69 68 68 67 67 66 66 64 63 -1 -1 -1 -1 -1 -1 -1 -1 -1 -1 -1 -1 -1 -1 -1 -1 -1 -1 -1 -1 -1 63 63 64 64 65 65 65 66 66 66 66 66 66 65 65 65 65 66 66 67 68 68 68 68 68 69 69 69 69 69 69 69 69 69 69 69 69 69 69 69 69 68 68 40 40 40 40 40 40 42 66 66 66 67 68 68 69 69 70 70 70 70 70 71 71 71 71 71 71 70 69 69 68 68 68 68 67 67 67 67 67 67 67 67 67 67 67 67 66 65 65 65 67 67 67 67 67 67 67 67 67 67 66 66 66 66 66 66 66 66 66 67 67 67 67 67 67 67 67 67 67 67 67 67 68 68 68 68 68 67 67 67 67 67 67 67 67 67 67 -1 -1 67 67 67 67 67 66 -1 -1 -1
78 78 78 78 78 78 78 77 77 77 76 76 76 76 76 76 76 76 76 76 76 76 76 76 75 75 75 76 76 76 76 76 76 76 76 76 76 76 76 75 75 75 74 74 74 73 73 73 72 72 72 72 71 71 71 70 70 69 69 68 67 66 65 65 65 65 65 65 65 65 65 66 67 68 69 68 68 68 67 67 66 66 65 64 63 -1 -1 -1 -1 -1 -1 -1 -1 -1 -1 -1 -1 -1 -1 63 63 63 63 63 63 63 63 64 64 65 65 65 65 65 66 65 65 65 65 65 65 65 65 66 66 67 67 67 67 67 67 67 68 68 69 69 69 69 69 69 69 69 69 69 69 69 69 68 68 68 40 40 40 40 40 40 45 66 66 66 68 69 69 69 70 70 70 70 71 71 71 71 71 70 70 70 69 69 68 68 68 67 67 67 67 67 67 67 67 67 66 66 67 67 66 65 65 65 67 67 67 67 67 67 67 67 67 66 66 66 66 66 66 66 66 66 -1 -1 65 -1 67 67 67 67 67 67 67 67 67 67 67 68 68 68 68 67 67 67 67 67 67 67 67 67 -1 -1 -1 66 67 67 67 67 67 -1 -1 -1
79 79 79 79 79 79 78 78 77 77 76 76 76 76 76 76 76 76 76 76 76 76 76 76 76 76 76 76 76 76 76 76 76 76 76 76 76 76 76 76 75 75 75 74 74 74 74 73 73 72 72 72 71 71 70 70 69 69 68 67 65 64 64 64 63 63 63 63 64 64 64 65 66 67 68 68 67 67 67 66 66 65 65 64 -1 -1 -1 -1 -1 -1 -1 -1 -1 -1 -1 -1 -1 63 63 63 64 64 64 64 64 64 64 64 65 65 66 65 65 65 65 65 65 65 65 65 65 66 66 66 66 67 67 67 66 66 66 67 67 68 69 69 69 69 69 69 69 69 69 69 69 69 69 69 68 68 66 40 40 40 40 40 38 38 50 66 66 69 69 70 70 70 70 71 71 71 71 71 71 70 70 70 69 68 68 68 68 67 67 67 67 67 67 67 67 67 66 66 67 67 66 65 65 65 67 67 67 67 67 67 67 67 66 66 66 66 66 66 66 66 66 65 -1 -1 -1 -1 -1 67 67 67 67 67 67 67 67 67 67 67 68 68 68 68 67 67 67 67 67 67 67 67 67 -1 -1 67 67 67 67 66 -1 -1 66 66
80 80 80 80 80 79 79 78 78 77 77 76 76 76 76 76 76 76 76 76 76 76 76 76 76 76 76 76 76 76 77 76 76 76 76 76 76 76 77 76 76 75 75 75 75 75 75 74 73 73 72 72 71 71 70 69 69 68 68 66 64 63 -1 -1 -1 -1 -1 -1 -1 -1 -1 64 65 66 67 67 67 67 66 66 65 65 64 63 -1 -1 -1 -1 -1 -1 -1 -1 -1 -1 63 -1 -1 64 64 64 64 65 65 65 65 64 64 65 65 65 66 66 65 65 65 65 64 64 64 65 65 66 67 67 66 66 66 66 65 65 65 66 67 68 69 69 69 69 70 70 70 70 70 69 69 69 69 69 68 68 66 66 40 40 40 38 38 38 38 46 66 66 70 70 70 70 70 71 71 71 71 71 71 70 70 69 69 68 68 68 67 67 67 67 67 67 67 67 67 67 66 66 66 67 66 66 66 67 67 67 67 67 67 67 67 66 66 66 66 66 66 66 66 66 66 -1 -1 -1 -1 -1 -1 67 67 67 67 67 67 67 67 67 67 67 68 68 68 68 67 67 67 67 67 67 67 67 67 67 67 66 -1 -1 -1 -1 -1 -1 -1 66
80 81 81 80 80 79 79 79 78 77 77 77 76 76 76 76 76 76 76 76 76 76 76 76 76 76 76 76 76 77 77 77 77 77 77 77 77 77 77 77 76 76 75 76 76 76 76 75 75 74 73 72 71 71 70 69 68 67 66 64 64 63 -1 -1 -1 -1 -1 -1 -1 -1 -1 63 64 65 66 66 65 65 65 64 64 64 63 63 -1 -1 -1 -1 -1 -1 -1 -1 -1 -1 63 64 64 64 65 65 65 65 65 65 65 65 65 65 66 66 66 66 66 66 65 65 64 64 64 64 65 66 67 67 66 66 66 66 66 65 65 66 67 68 69 69 69 69 70 70 70 70 70 70 70 69 69 69 69 68 68 66 66 44 40 38 38 38 38 38 42 66 66 70 70 70 71 71 71 71 71 71 70 70 70 69 69 68 68 67 67 67 67 67 67 67 67 67 67 67 66 66 67 67 67 66 67 67 67 67 67 67 67 67 67 66 66 66 66 66 66 66 66 66 66 -1 -1 -1 -1 -1 -1 67 67 67 65 67 67 67 67 67 67 67 68 68 68 68 67 67 67 67 67 67 67 67 67 67 66 -1 -1 -1 -1 -1 -1 -1 -1 66
81 81 81 81 80 80 79 79 78 78 77 77 77 76 76 76 76 76 76 76 76 76 76 76 76 76 76 76 77 77 77 77 77 77 77 77 77 78 78 77 77 77 76 76 77 77 77 76 76 75 74 73 72 71 70 68 66 65 64 64 63 -1 -1 -1 -1 -1 -1 -1 -1 -1 -1 63 63 64 65 64 64 64 64 63 63 63 63 -1 -1 -1 -1 -1 -1 -1 -1 -1 -1 63 64 64 65 65 65 65 65 65 66 66 66 66 66 66 66 66 66 66 66 66 66 65 64 64 64 64 65 66 67 67 67 66 66 66 66 66 66 67 68 69 69 69 69 70 70 70 70 70 70 70 70 69 69 69 69 68 68 68 67 66 46 38 38 38 38 38 40 41 66 66 66 71 71 71 71 71 71 71 70 70 69 69 68 68 67 67 67 67 67 67 67 67 67 67 67 67 66 66 67 67 67 67 67 67 67 67 67 67 67 67 67 67 66 66 66 66 66 66 66 66 66 -1 -1 -1 -1 -1 -1 67 67 65 65 65 67 67 67 67 67 67 67 68 68 67 67 67 67 67 67 67 67 67 67 67 -1 -1 -1 -1 -1 -1 -1 -1 -1 -1
81 81 81 81 80 80 79 79 78 78 78 77 77 77 76 76 76 76 76 76 76 76 76 76 76 76 76 76 77 77 77 77 77 77 77 77 78 78 79 78 78 77 77 77 78 78 78 77 76 76 75 74 72 71 70 67 65 64 63 -1 -1 -1 -1 -1 -1 -1 -1 -1 -1 -1 -1 -1 -1 63 63 63 63 63 63 -1 -1 -1 -1 -1 -1 -1 -1 -1 -1 -1 -1 -1 63 64 65 65 65 65 66 66 66 66 66 66 66 66 66 66 66 67 67 67 66 66 66 65 64 64 64 64 64 66 68 67 67 66 66 66 66 67 67 68 69 69 70 70 70 70 70 70 70 70 70 70 70 70 69 69 69 68 68 68 67 66 66 38 38 38 38 38 38 38 38 66 66 66 71 71 71 71 71 71 70 69 69 69 68 68 67 67 67 67 67 67 67 67 67 67 67 67 66 66 67 67 67 67 67 67 67 67 67 67 67 67 67 67 66 66 66 66 66 66 66 66 66 65 -1 -1 -1 -1 -1 67 67 65 65 65 67 67 67 67 67 67 67 67 68 67 67 67 67 67 67 67 67 66 66 66 66 -1 -1 -1 -1 -1 -1 -1 -1 -1
82 82 82 81 80 80 79 79 79 78 78 78 77 77 76 76 76 76 76 76 76 76 76 76 76 76 76 77 77 77 77 77 77 77 78 78 78 79 80 79 79 79 78 78 79 79 79 78 77 76 76 74 73 71 69 65 64 63 -1 -1 -1 -1 -1 -1 -1 -1 -1 -1 -1 -1 -1 -1 -1 -1 -1 -1 -1 -1 -1 -1 -1 -1 -1 -1 -1 -1 -1 -1 -1 -1 -1 -1 63 64 65 65 66 66 66 66 66 67 67 67 67 67 67 67 67 67 67 67 67 67 66 65 64 64 63 64 64 66 68 68 67 66 65 66 67 68 69 69 70 70 70 70 70 70 70 70 70 70 70 70 70 70 69 69 69 68 68 68 68 66 66 66 38 38 38 38 38 38 38 38 66 66 66 71 71 71 71 71 70 69 69 68 68 68 67 67 67 67 67 67 67 67 67 67 67 67 66 66 67 67 67 67 67 67 67 67 67 53 54 63 67 67 66 66 66 66 66 66 66 66 66 -1 -1 -1 -1 -1 -1 66 67 65 65 65 67 67 67 67 67 67 67 67 68 67 67 67 67 67 67 67 66 66 66 66 66 66 -1 -1 -1 -1 -1 -1 -1 66
82 82 82 81 81 80 79 79 79 78 78 78 77 77 77 77 77 77 76 76 76 76 76 76 76 76 76 77 77 77 78 78 78 78 78 78 78 79 80 79 79 79 78 78 79 79 79 78 77 76 75 74 72 70 69 65 64 63 -1 -1 -1 -1 -1 -1 -1 -1 -1 -1 -1 -1 -1 -1 -1 -1 -1 -1 -1 -1 -1 -1 -1 -1 -1 -1 -1 -1 -1 -1 -1 -1 -1 63 64 65 66 66 66 66 67 67 67 67 67 67 67 67 67 67 67 67 68 67 67 67 67 66 65 64 64 64 66 68 69 69 68 68 67 68 68 69 70 70 70 70 70 70 70 70 70 70 70 70 70 70 70 70 70 69 69 69 68 68 68 68 66 66 66 40 38 38 38 38 38 38 38 66 66 66 71 71 71 71 70 70 69 69 68 68 67 67 67 67 67 67 67 67 67 67 67 67 66 66 67 67 67 67 67 67 67 67 55 55 61 64 65 67 66 66 66 66 66 66 66 66 65 -1 -1 -1 -1 -1 65 66 67 65 65 65 67 67 67 67 67 67 67 67 68 67 67 67 67 67 67 67 66 66 66 66 66 66 66 66 66 66 66 66 66 66
82 82 82 81 81 80 79 79 78 78 78 77 77 77 77 77 77 77 77 77 77 77 77 77 77 77 77 77 77 77 78 78 78 78 78 78 79 79 80 79 79 79 78 78 78 79 79 77 76 76 75 73 72 70 68 65 64 63 -1 -1 -1 -1 -1 -1 -1 -1 -1 -1 -1 -1 -1 -1 -1 -1 -1 -1 -1 -1 -1 -1 -1 -1 -1 -1 -1 -1 -1 -1 -1 -1 63 64 64 65 66 66 67 67 67 67 67 67 67 67 67 67 68 68 68 68 68 68 68 68 68 67 67 66 66 67 68 69 70 69 69 69 68 69 69 70 70 70 70 70 70 70 70 71 71 71 70 70 70 70 70 70 70 69 69 69 68 68 68 68 67 66 66 66 38 38 38 38 38 38 38 44 66 66 66 71 71 71 70 70 70 69 69 68 67 67 67 67 67 67 67 67 67 67 67 66 66 66 66 67 67 67 67 67 67 67 67 63 64 64 66 67 66 66 66 66 66 66 66 66 66 -1 -1 -1 -1 -1 -1 66 66 65 65 65 67 67 67 67 67 67 67 67 68 67 67 67 67 67 67 67 66 66 66 66 66 66 66 66 66 66 66 67 67 67
82 82 82 81 81 80 79 79 78 78 77 77 77 77 77 77 77 77 77 77 77 77 77 77 77 77 77 77 77 78 78 78 78 78 78 78 79 79 80 79 79 79 78 78 78 78 78 77 76 75 74 73 71 69 68 65 64 63 -1 -1 -1 -1 -1 -1 -1 -1 -1 -1 -1 -1 -1 -1 -1 -1 -1 -1 -1 -1 -1 -1 -1 -1 -1 -1 -1 -1 -1 -1 63 63 64 64 65 66 66 67 67 67 68 68 68 68 68 68 68 68 68 68 68 68 68 68 68 68 68 68 68 68 68 69 69 70 70 70 70 70 70 70 70 70 70 70 71 71 71 71 71 71 71 71 71 71 70 70 70 70 70 69 69 69 68 68 68 68 68 68 66 66 48 38 38 38 38 38 38 37 40 66 66 66 71 71 71 70 70 69 69 68 67 67 67 67 67 67 67 67 67 67 67 66 66 66 66 66 67 67 67 67 67 67 67 66 65 65 66 67 67 67 67 67 67 66 66 66 66 66 -1 -1 -1 -1 65 66 66 65 65 65 67 67 67 67 67 67 67 67 67 67 67 67 67 67 67 67 66 66 66 66 66 66 66 66 66 66 67 67 67 67
82 82 82 81 81 80 79 79 78 78 77 77 77 77 77 77 77 77 77 77 77 77 77 77 77 77 77 77 78 78 78 78 78 78 78 78 79 79 80 79 79 79 78 78 78 78 78 77 76 75 74 72 71 69 68 65 64 63 -1 -1 -1 -1 -1 -1 -1 -1 -1 -1 -1 -1 -1 -1 -1 -1 -1 -1 -1 -1 -1 -1 -1 -1 -1 -1 -1 -1 -1 63 63 64 65 65 66 66 67 67 67 68 68 68 68 68 68 68 68 68 68 68 68 68 69 69 69 69 69 69 69 70 70 70 70 70 70 71 71 71 71 71 71 71 71 71 71 71 71 71 71 71 71 71 71 71 71 70 70 70 70 70 69 69 69 68 68 68 68 68 69 66 66 50 38 38 38 37 37 36 36 37 66 66 66 71 71 71 71 70 69 68 67 67 67 67 67 67 67 67 67 67 67 66 66 66 66 66 66 67 67 67 67 67 67 67 67 67 67 67 67 67 67 67 67 67 67 66 66 66 -1 -1 -1 66 66 66 66 66 65 67 67 67 67 67 67 67 67 67 67 67 67 67 67 67 67 67 67 66 66 66 66 66 66 66 66 66 67 67 67 67
82 82 82 81 81 80 79 79 78 78 77 77 77 77 77 -2 -2 -2 -2 -2 78 78 78 78 78 78 78 78 78 78 78 78 78 79 79 79 79 79 79 79 79 78 78 78 78 77 77 76 75 74 73 72 70 69 68 65 64 63 -1 -1 -1 -1 -1 -1 -1 -1 -1 -1 -1 -1 -1 -1 -1 -1 -1 -1 -1 -1 -1 -1 -1 -1 -1 -1 63 63 63 63 64 65 65 66 66 67 67 67 68 68 68 68 68 68 68 68 68 68 68 68 69 69 69 69 69 69 69 69 70 70 70 70 70 70 71 71 71 71 71 71 71 71 71 71 71 71 71 71 71 71 71 71 71 71 71 70 70 70 70 70 69 69 69 69 68 68 68 68 69 69 66 66 51 38 38 37 36 36 36 36 36 66 66 66 71 71 71 70 70 69 68 68 68 67 67 67 67 67 67 67 67 67 67 67 67 67 67 67 67 67 67 67 67 67 67 67 67 67 67 67 67 67 67 67 67 67 67 67 -1 -1 67 67 67 66 66 66 66 67 67 67 67 67 67 67 67 67 67 67 67 67 67 67 67 67 66 66 66 66 66 66 66 66 66 67 67 67 67 67
82 82 82 81 80 80 79 79 78 78 77 77 77 77 -2 -2 -2 -2 -2 -2 -2 78 78 78 78 78 78 78 78 79 79 79 79 79 79 79 79 79 79 79 78 78 77 77 77 76 76 75 74 73 73 71 70 69 68 66 64 63 -1 -1 -1 -1 -1 -1 -1 -1 -1 -1 -1 -1 63 63 63 63 63 63 63 63 63 63 63 63 63 64 64 64 64 64 65 65 66 66 66 67 67 68 68 68 68 68 68 68 68 68 68 68 68 69 69 69 69 69 69 69 69 70 70 70 70 70 70 71 71 71 71 71 71 71 71 71 71 71 71 71 71 71 71 71 71 71 71 71 71 71 70 70 70 70 69 69 69 69 68 68 68 69 69 70 70 66 66 66 40 37 36 36 36 36 36 39 66 66 66 66 71 71 70 70 69 69 68 68 67 67 67 67 67 67 67 67 67 67 67 67 67 67 67 67 67 67 67 67 67 67 67 67 67 67 67 67 67 67 67 67 67 67 67 67 67 67 67 66 65 65 65 66 67 67 67 67 67 67 67 67 67 67 67 67 67 67 67 67 66 66 66 66 66 66 66 66 67 67 67 67 68 68
82 81 81 81 80 79 79 78 78 78 77 77 77 -2 -2 -2 -2 -2 -2 -2 -2 79 79 79 79 79 79 79 79 79 79 79 79 79 79 79 79 79 79 -1 78 78 77 77 76 76 75 75 74 73 72 71 70 69 68 66 64 63 -1 -1 -1 -1 -1 -1 -1 -1 -1 63 63 63 64 64 64 64 64 64 64 64 64 64 65 65 65 65 65 65 65 65 65 66 66 66 67 67 68 68 68 68 69 69 69 69 69 69 69 68 68 69 69 69 69 69 69 69 70 70 70 70 70 70 71 71 71 71 71 71 71 71 71 71 71 71 71 72 72 72 72 72 72 71 71 71 71 71 70 70 70 70 69 69 69 69 69 68 68 69 69 70 70 71 66 66 51 37 36 36 36 36 36 39 39 66 66 66 66 71 71 71 70 70 69 68 67 67 67 67 67 67 67 67 67 67 67 67 67 67 67 67 67 67 67 67 67 67 67 67 67 67 67 67 67 67 67 67 67 67 67 67 67 67 67 66 65 65 65 65 67 67 67 67 67 67 67 67 67 67 67 67 67 67 67 67 66 66 66 66 66 66 66 67 67 67 67 68 68 68
81 81 81 80 80 79 79 78 78 78 77 78 78 -2 -2 -2 -2 -2 -2 -2 -2 79 79 79 79 79 79 79 79 79 79 79 80 80 80 79 79 79 78 78 78 77 77 76 76 75 75 74 73 72 72 71 70 69 68 66 65 63 -1 -1 -1 -1 -1 -1 -1 -1 63 64 64 65 65 65 65 65 65 65 65 66 66 66 66 66 66 66 66 66 66 66 66 66 66 67 67 67 68 68 68 69 69 69 69 69 69 69 69 69 69 69 69 69 69 69 69 70 70 70 70 70 70 71 71 71 71 71 71 72 72 72 72 72 71 72 72 72 72 72 72 72 72 72 71 71 71 71 70 70 70 70 70 69 69 69 69 69 68 69 70 70 70 71 71 66 66 66 36 36 36 36 36 39 39 51 66 66 66 66 71 71 71 70 69 68 67 67 67 67 67 67 67 67 67 67 67 67 67 67 67 67 67 67 67 67 67 67 67 67 67 67 67 67 67 67 67 67 67 67 67 67 67 67 67 67 65 65 65 65 67 67 67 67 67 67 67 67 67 67 67 67 67 67 67 67 66 66 66 66 66 66 67 67 67 67 67 68 68 68
81 81 81 80 80 79 79 78 78 78 78 78 78 77 -2 -2 -2 -2 -2 -2 -2 79 80 79 79 79 79 79 79 79 79 80 80 80 80 79 79 79 78 78 77 77 76 76 75 75 74 74 73 72 71 70 69 68 67 65 64 63 63 -1 -1 -1 -1 -1 63 63 64 64 65 65 65 66 66 66 66 66 66 66 66 66 66 66 66 66 66 66 66 66 66 67 67 67 67 68 68 68 69 69 69 69 69 69 69 69 69 69 69 69 69 69 69 69 70 70 70 70 70 70 71 71 71 71 72 72 72 72 72 72 72 72 72 72 72 72 72 72 72 72 72 72 72 71 71 71 71 71 70 70 70 70 69 69 69 69 69 70 70 70 71 71 71 71 66 66 66 36 36 37 38 35 35 35 35 46 66 66 66 71 71 71 70 69 68 68 67 67 67 67 67 67 67 67 67 67 67 67 67 67 67 67 67 67 67 67 67 67 67 67 67 67 67 67 67 67 67 67 67 67 67 67 67 67 65 65 65 65 67 67 67 67 67 67 67 67 67 67 67 67 67 67 67 67 66 66 66 66 66 66 66 67 67 67 67 68 68 68
81 80 80 80 79 79 79 78 78 78 78 78 77 -2 -2 -2 -2 -2 -2 -2 -2 -2 80 80 80 79 79 79 80 80 80 80 80 80 80 79 79 78 78 78 77 77 76 76 75 74 74 73 72 71 71 69 68 67 66 65 64 63 63 63 63 63 63 63 64 64 65 65 65 66 66 66 66 66 67 67 67 67 67 67 67 67 67 67 67 67 67 67 67 67 67 67 68 68 68 69 69 69 69 69 69 69 69 69 69 69 69 69 69 69 69 69 70 70 70 70 71 71 71 71 71 72 72 72 72 72 72 72 72 72 72 72 72 72 72 72 72 72 72 72 72 72 71 71 71 71 71 70 70 70 70 70 70 70 69 70 70 71 71 71 71 71 71 66 66 50 39 39 35 35 35 35 35 35 51 66 66 71 71 71 70 69 69 68 68 67 67 67 67 67 67 67 67 67 67 67 67 67 67 67 67 67 67 67 67 67 67 67 67 67 67 67 67 67 67 67 67 67 67 67 67 67 65 65 65 65 67 67 67 67 66 66 66 67 67 67 67 67 67 67 67 67 67 66 66 66 66 66 66 67 67 67 67 68 68 68
80 80 80 79 79 79 79 78 78 78 78 78 77 -2 -2 -2 -2 -2 -2 -2 -2 80 80 80 80 80 80 80 80 80 80 80 80 80 80 79 79 78 78 77 77 76 76 75 75 74 73 72 72 71 70 68 67 66 64 64 64 63 63 63 64 64 64 65 65 65 66 66 66 66 66 67 67 67 67 67 67 67 67 67 67 67 67 67 67 67 67 67 67 68 68 68 68 69 69 69 69 69 69 69 69 69 69 69 69 69 69 69 69 69 69 70 70 70 70 71 71 71 71 71 72 72 72 72 72 73 73 73 73 73 73 73 73 73 73 73 73 73 73 72 72 72 72 71 71 71 71 71 70 70 70 70 70 70 70 70 71 71 71 71 71 71 71 71 66 66 46 35 35 35 35 35 35 35 35 66 66 66 71 71 70 70 69 69 68 68 67 67 67 67 67 67 67 67 67 67 67 67 67 67 67 67 67 67 67 67 67 67 67 67 67 67 67 67 67 67 67 67 67 67 66 65 65 65 65 65 67 67 67 66 66 66 66 66 67 67 67 67 67 67 67 67 66 66 66 66 66 66 66 66 67 67 68 68 68 68
79 79 79 79 79 79 79 79 78 78 78 78 78 -2 -2 -2 -2 -2 -2 -2 -2 80 80 80 80 80 80 80 80 80 80 80 80 80 79 79 78 78 78 77 77 76 76 75 74 73 73 72 71 70 70 68 66 65 64 64 63 63 63 64 64 65 66 66 66 66 66 67 67 67 67 67 67 68 68 68 68 68 68 68 68 68 68 68 68 68 68 68 68 68 68 68 69 69 69 69 69 70 70 70 69 69 69 69 69 69 69 69 69 69 69 70 70 70 71 71 71 71 71 72 72 72 73 73 73 73 73 73 73 73 73 73 73 73 73 73 73 73 73 73 72 72 72 72 71 71 71 71 71 70 70 70 70 70 71 71 71 71 71 71 71 71 71 71 71 66 66 35 35 35 35 35 35 35 35 46 66 66 71 71 71 70 70 69 68 68 67 67 67 67 67 67 67 67 67 67 67 67 67 67 67 67 67 67 67 67 67 67 67 67 67 67 67 66 66 66 67 67 66 65 65 65 65 65 65 67 67 67 67 66 66 66 66 66 66 67 67 66 66 66 66 67 66 66 66 66 66 66 66 66 66 67 68 68 68 69
79 79 79 79 79 79 79 79 79 79 79 79 79 79 79 -2 -2 -2 -2 80 80 80 80 80 80 80 80 80 80 80 80 79 79 79 79 78 78 77 77 76 76 75 75 74 73 72 70 70 69 69 68 67 65 64 64 64 64 64 64 64 65 66 66 66 67 67 67 67 67 67 68 68 68 68 68 68 68 68 68 68 68 68 68 68 68 68 68 68 68 68 68 69 69 69 69 69 70 70 70 70 70 69 69 69 69 69 69 69 69 70 70 70 70 70 71 71 71 71 72 72 72 73 73 73 73 73 73 73 73 73 73 73 73 73 73 73 73 73 73 73 73 72 72 72 72 71 71 71 71 71 70 71 71 71 71 71 71 71 71 71 71 72 72 72 72 66 66 46 35 35 35 35 35 35 35 35 66 66 71 71 71 70 70 69 69 68 68 68 67 67 67 67 67 67 67 67 67 67 67 67 67 67 67 67 67 67 67 67 67 67 67 67 67 66 66 66 65 65 65 65 65 65 65 65 67 67 67 67 67 66 65 65 65 65 66 67 67 67 66 66 67 67 66 66 66 66 66 66 67 67 67 67 68 68 69 69
78 78 78 79 79 79 79 79 79 79 79 79 79 79 79 79 79 80 80 80 80 80 80 80 80 80 80 80 79 79 79 79 79 79 78 78 77 77 76 76 75 75 74 73 71 70 69 68 68 67 67 66 65 64 64 64 64 64 64 65 65 66 67 67 67 67 68 68 68 68 68 68 69 69 69 69 69 69 69 69 69 69 69 69 69 69 69 69 69 69 69 69 69 69 70 70 70 70 70 70 70 70 70 70 70 70 70 70 70 70 70 70 70 70 71 71 71 71 72 72 72 73 73 73 73 74 74 74 74 74 74 74 74 74 74 74 74 74 73 73 73 73 72 72 72 72 71 71 71 71 71 71 71 71 71 71 71 71 71 71 72 72 72 72 72 66 66 66 35 35 35 35 35 35 35 35 66 66 66 71 71 71 70 70 69 69 68 68 68 67 67 67 67 67 67 67 67 67 67 67 67 67 67 67 67 67 67 67 67 67 67 67 67 66 66 66 65 65 65 65 65 65 65 67 67 68 68 68 67 66 65 65 65 65 65 66 67 67 67 67 67 67 66 66 66 67 66 67 67 67 67 67 68 68 69 69
78 78 78 78 79 79 80 80 80 80 80 80 80 80 80 80 80 80 80 80 80 80 80 80 80 80 80 80 79 79 79 79 78 78 78 77 77 76 76 75 74 74 73 72 70 69 67 67 66 66 66 65 65 64 64 64 64 64 64 65 66 67 67 68 68 68 69 69 69 69 69 69 69 69 69 69 69 69 69 69 69 69 69 69 69 69 69 69 69 69 69 69 69 70 70 70 70 70 70 70 70 70 70 70 70 70 70 70 70 70 70 70 70 70 70 71 71 72 72 72 73 73 73 74 74 74 74 74 74 74 74 74 74 74 74 74 74 74 74 73 73 73 73 72 72 72 72 72 71 71 71 71 71 71 71 71 71 72 72 72 72 72 72 72 72 72 66 66 66 35 35 35 35 35 35 38 39 66 66 66 71 71 71 70 70 69 69 68 68 68 67 67 67 67 67 67 67 67 67 67 67 67 67 67 67 67 67 67 67 67 67 67 67 67 66 66 65 65 65 65 65 68 68 68 68 68 68 68 68 66 65 65 64 64 64 65 67 67 67 67 67 64 64 66 66 67 67 67 67 67 67 67 68 68 69 69
78 77 77 78 79 79 80 80 80 80 80 80 80 80 80 80 80 80 80 80 80 80 80 80 80 80 80 79 79 79 79 78 78 78 78 77 76 76 75 74 74 73 73 71 69 67 66 66 65 65 65 64 64 64 64 64 64 64 65 65 66 67 68 68 69 69 69 70 70 70 70 70 70 70 70 70 70 70 70 70 70 70 70 70 70 69 69 69 69 69 69 70 70 70 70 70 70 70 70 70 70 70 70 70 70 70 70 70 70 70 70 70 70 70 70 71 71 72 72 72 73 73 74 74 74 74 74 75 75 75 75 75 75 75 75 75 74 74 74 74 73 73 73 73 73 72 72 72 72 71 71 71 71 71 72 72 72 72 72 72 72 72 72 72 72 72 66 66 66 51 35 35 35 35 35 38 38 51 66 66 66 71 71 71 70 70 69 69 68 68 67 67 67 67 67 67 67 67 67 67 67 67 67 67 67 67 67 67 67 67 67 67 67 67 67 67 67 66 67 67 67 68 68 68 68 68 68 68 68 66 65 64 64 64 64 64 66 67 67 67 67 63 64 67 67 67 67 67 67 67 67 67 68 68 69 69
78 78 79 79 80 80 81 81 80 80 80 80 80 80 80 81 81 81 81 81 81 81 81 80 80 80 80 80 79 79 79 78 78 77 77 76 75 74 73 72 71 71 70 69 68 67 66 66 65 65 65 65 64 64 64 64 65 65 66 66 67 68 69 69 69 69 70 70 70 70 70 70 70 70 70 70 70 70 70 70 70 70 70 70 70 70 69 69 69 70 70 70 70 70 70 70 70 70 70 70 70 70 70 70 70 70 70 70 70 70 70 70 70 71 71 71 72 72 72 73 73 73 74 74 74 74 75 75 75 75 75 75 75 75 75 75 75 74 74 74 74 73 73 73 73 72 72 72 72 72 71 71 72 72 72 72 72 72 72 72 72 72 72 72 72 72 72 66 66 66 66 39 38 38 38 38 38 38 50 66 66 71 71 71 70 70 70 69 69 68 68 68 68 67 67 67 67 67 67 67 67 67 67 67 67 67 67 67 67 67 67 67 67 67 67 67 67 67 66 66 68 68 68 68 68 68 68 68 68 66 65 64 63 63 63 63 64 67 67 67 67 63 64 67 67 67 66 67 67 67 67 67 68 68 69 69
79 79 80 80 81 81 81 81 81 81 81 81 81 81 81 81 81 81 81 81 81 81 81 81 81 80 80 80 79 79 78 78 77 77 76 75 73 72 70 70 69 69 69 68 67 66 66 65 65 65 65 65 65 64 64 65 65 66 66 67 68 68 69 69 69 70 70 70 70 70 70 70 70 70 70 70 70 70 70 70 70 70 70 70 70 70 70 70 70 70 70 70 70 70 70 70 70 70 71 70 70 70 70 70 70 70 70 70 70 70 70 71 71 71 71 72 72 72 73 73 73 74 74 74 75 75 75 75 75 75 75 75 75 75 75 75 75 75 74 74 74 74 73 73 73 73 72 72 72 72 72 72 72 72 72 72 72 72 72 72 72 72 72 72 72 72 72 72 66 66 66 39 38 38 38 38 38 38 38 66 66 66 71 71 71 70 70 70 69 68 68 68 68 68 67 67 67 67 68 67 67 67 67 67 67 67 67 67 67 67 67 67 67 67 67 67 68 67 66 66 67 68 68 68 68 68 68 68 68 68 64 63 62 59 59 60 60 67 67 67 67 67 67 67 67 66 66 67 67 67 67 67 68 68 69 69
79 80 82 82 82 82 82 82 82 82 82 82 82 82 82 82 82 82 82 82 81 81 81 81 81 80 80 80 79 79 78 78 77 76 76 74 72 70 69 68 68 67 67 67 66 66 65 65 65 65 65 65 65 65 64 65 66 67 67 68 68 69 69 70 70 70 70 70 70 70 70 70 70 70 70 70 70 70 70 70 70 70 70 70 70 70 70 70 70 70 70 70 70 70 70 70 70 70 71 71 71 71 70 70 70 70 70 70 70 70 71 71 71 71 71 72 72 73 73 73 74 74 74 75 75 75 75 75 76 76 76 76 76 76 76 76 75 75 75 74 74 74 74 73 73 73 73 72 72 72 72 72 72 72 72 72 72 72 72 72 72 72 72 72 72 72 72 72 71 66 66 51 38 38 38 38 38 38 38 51 66 66 71 71 71 71 71 70 69 69 68 68 68 68 67 68 68 68 68 68 68 68 68 67 67 67 67 67 67 67 67 67 67 67 67 68 68 66 66 66 66 68 68 68 68 68 68 68 68 68 64 62 61 59 59 60 60 65 67 67 67 67 67 67 66 66 66 66 67 67 67 67 68 68 69 69
80 82 84 84 83 83 83 83 82 82 82 82 82 82 82 82 82 82 82 82 82 82 82 81 81 81 80 80 79 79 78 77 76 76 75 73 70 68 67 67 66 66 66 65 65 65 65 65 65 65 65 65 65 65 65 66 67 68 69 69 69 70 70 70 70 70 71 70 70 70 70 70 70 70 70 70 70 70 70 70 70 70 70 70 70 70 70 70 70 70 70 70 70 70 70 70 70 71 71 71 71 71 71 71 70 70 70 70 70 71 71 71 71 72 72 72 73 73 73 74 74 74 75 75 75 75 76 76 76 76 76 76 76 76 76 76 76 75 75 75 74 74 74 73 73 73 73 73 73 72 72 72 72 72 71 72 72 72 72 72 72 72 72 72 72 72 72 72 71 66 66 66 38 38 38 38 37 37 37 51 66 66 66 71 71 71 71 70 70 69 68 68 68 68 68 68 68 68 68 68 68 68 68 68 68 67 67 67 67 67 67 68 68 68 68 68 68 68 65 65 65 68 68 68 68 68 68 68 68 68 63 61 60 60 60 60 61 67 67 67 67 67 67 67 66 66 66 66 66 66 67 67 68 68 69 67
81 83 84 84 84 83 83 83 83 83 82 83 83 83 83 83 83 83 83 82 82 82 82 82 81 81 80 80 79 78 78 76 75 74 73 71 69 68 66 66 66 66 65 65 66 66 66 66 66 66 66 66 66 66 66 66 67 68 69 69 70 70 70 70 70 71 71 71 71 70 70 70 70 70 70 70 70 70 70 70 70 70 70 70 70 70 70 69 69 69 68 68 69 69 69 69 69 70 70 70 71 71 71 71 70 70 70 70 71 71 71 71 71 72 72 72 73 73 73 74 74 75 75 75 75 76 76 76 76 76 76 76 76 76 76 76 76 75 75 75 75 74 74 74 73 73 73 73 73 73 72 72 72 72 72 72 72 72 72 72 72 72 72 72 72 72 72 72 71 66 66 66 38 38 38 37 37 37 37 37 37 66 66 66 71 71 71 70 70 69 69 69 68 68 68 68 68 68 68 68 68 68 68 68 68 68 68 68 68 68 68 68 68 68 68 68 68 68 65 65 65 68 68 68 68 68 68 68 68 68 68 60 59 59 59 59 59 67 67 67 67 67 67 67 66 66 66 67 67 67 67 68 68 69 69 67
82 83 84 84 84 84 83 83 83 83 83 83 83 83 83 83 83 83 83 83 83 83 83 82 81 81 80 79 79 78 77 75 73 72 70 69 68 67 66 66 65 65 65 65 66 66 67 67 67 67 67 67 67 67 67 67 68 69 69 70 70 70 70 71 71 71 71 71 71 71 70 70 70 70 70 70 70 70 70 70 70 70 70 70 70 70 70 69 68 68 67 67 67 67 67 68 68 69 70 70 70 71 71 71 71 70 70 71 71 71 71 71 71 72 72 72 73 73 74 74 74 75 75 75 75 76 76 76 76 76 76 76 76 76 76 76 76 75 75 75 75 74 74 74 73 73 73 73 73 73 72 72 72 72 72 72 72 72 72 72 72 72 72 72 72 72 72 72 71 71 66 66 66 38 38 37 37 37 37 37 37 46 66 66 71 71 71 71 70 70 69 69 69 68 68 68 68 68 68 68 68 68 68 68 68 68 68 68 68 68 68 68 68 68 68 68 68 68 68 64 68 68 68 68 68 68 68 68 68 68 67 60 59 58 58 58 59 67 67 67 67 67 67 67 66 66 66 67 67 67 68 68 68 69 69 69
83 84 85 84 84 84 84 84 83 83 83 83 84 84 84 84 84 84 84 83 83 83 83 82 82 81 80 79 78 77 76 74 72 70 68 68 67 66 65 65 65 65 65 65 66 67 67 68 68 68 68 68 68 68 68 69 69 69 70 70 70 70 71 71 71 71 71 71 71 71 70 70 70 70 70 70 70 70 70 70 70 70 70 70 70 70 70 69 68 67 66 66 66 66 66 66 67 68 70 70 70 71 71 71 71 71 70 71 71 71 71 71 72 72 72 73 73 73 74 74 74 75 75 75 76 76 76 76 76 76 77 76 76 76 76 76 76 76 75 75 75 74 74 74 74 73 73 73 73 73 72 72 72 72 72 72 72 72 72 72 72 72 72 72 72 72 72 72 71 71 66 66 66 66 46 37 37 37 37 37 37 37 66 66 66 71 71 71 70 70 70 70 69 69 69 68 68 68 68 68 68 68 68 68 68 68 68 68 68 68 68 68 68 68 68 68 68 68 68 68 68 68 68 68 68 68 68 68 68 67 67 67 58 58 58 58 67 67 67 67 67 67 67 67 66 66 66 67 67 68 68 68 69 69 69 69
85 85 85 85 84 84 84 84 84 84 84 84 84 84 84 84 84 84 84 84 84 84 83 83 82 81 80 79 78 77 76 73 71 69 67 66 66 65 65 65 65 65 65 65 66 67 68 69 69 69 69 70 70 70 70 70 70 70 70 70 71 71 71 71 71 71 71 71 71 71 70 70 70 70 70 70 70 70 70 70 70 70 70 70 70 70 70 69 67 66 64 64 64 64 64 65 66 67 69 70 70 70 71 71 71 71 71 71 71 71 71 71 72 72 72 73 73 74 74 74 75 75 75 76 76 76 76 76 76 76 77 77 76 76 76 76 76 76 75 75 75 75 74 74 74 73 73 73 73 73 73 72 72 72 72 72 72 72 72 72 72 72 72 72 72 72 72 72 71 71 71 66 66 66 66 37 37 37 37 37 37 37 44 66 66 66 71 71 71 71 70 70 70 69 69 69 68 68 68 68 68 68 68 68 68 68 68 68 68 68 68 68 68 68 68 68 68 68 68 68 68 68 68 68 68 68 68 68 67 67 67 67 67 58 58 58 67 67 67 67 67 67 67 67 66 66 66 67 68 68 69 69 69 69 69 69
85 85 85 85 85 84 84 84 84 84 84 84 84 84 84 84 84 84 84 84 83 83 83 82 81 80 79 78 77 76 75 72 70 68 67 66 66 65 65 65 65 65 65 66 67 68 69 69 69 70 70 70 70 70 70 70 70 71 71 71 71 71 71 71 71 71 71 71 71 71 71 70 70 70 70 70 70 70 70 70 70 70 70 70 70 69 69 68 67 66 64 64 64 64 64 65 66 67 68 69 70 70 71 71 71 71 71 71 71 71 71 72 72 72 73 73 73 74 74 74 75 75 75 76 76 76 76 76 76 76 76 76 76 76 76 76 76 76 75 75 75 75 74 74 74 73 73 73 73 73 73 73 72 72 72 72 72 72 73 72 72 72 72 72 72 72 72 72 71 71 71 71 66 66 66 37 37 37 37 37 37 37 39 51 66 66 66 71 71 71 71 70 70 70 69 69 69 68 68 68 68 68 68 68 68 68 68 68 68 68 68 68 68 68 68 68 68 68 68 68 68 68 68 68 68 68 68 67 67 67 67 67 67 67 57 67 67 67 67 67 67 67 67 67 67 66 66 67 68 68 69 69 69 69 69 69
86 86 85 85 85 84 84 84 84 84 84 84 84 84 84 84 84 84 83 83 83 82 82 81 80 79 79 77 76 75 74 72 70 68 66 66 66 65 65 65 66 66 66 67 68 68 69 70 70 70 71 71 71 71 71 71 71 71 71 71 71 71 71 71 71 71 72 71 71 71 71 71 70 70 70 70 70 70 70 70 70 70 70 70 69 69 68 67 66 65 64 64 64 64 64 65 66 66 67 68 69 70 71 71 71 71 71 71 71 72 72 72 72 73 73 73 74 74 74 75 75 75 75 76 76 76 76 76 76 76 76 76 76 76 76 76 76 75 75 75 75 74 74 74 74 73 73 73 73 73 73 73 72 72 72 72 72 73 73 72 72 72 72 72 72 72 72 72 72 71 71 71 71 66 66 51 37 37 37 37 37 39 39 41 46 66 66 71 71 71 71 70 70 70 70 69 69 68 68 68 68 68 68 68 68 68 68 68 68 68 68 68 68 68 68 68 68 68 68 68 68 68 68 68 68 68 67 67 67 67 67 67 67 67 67 67 67 67 67 67 67 67 67 67 67 67 67 67 68 68 68 69 69 69 69 69
86 86 86 85 85 85 84 84 84 84 84 84 84 84 84 84 84 83 83 83 82 82 81 81 80 79 78 77 76 75 74 71 69 67 66 66 65 65 65 65 66 67 67 68 68 69 70 70 71 71 71 71 72 72 72 72 72 72 72 72 72 72 72 72 72 72 72 71 71 71 71 71 71 70 70 70 70 70 70 70 70 70 70 69 69 68 68 67 66 65 64 64 64 64 64 65 65 66 67 68 69 70 71 71 71 71 71 72 72 72 72 72 73 73 73 73 74 74 74 75 75 75 73 -1 -1 -1 -1 -1 76 76 76 76 76 76 76 76 75 75 75 75 75 74 74 74 74 73 73 73 73 73 73 73 72 72 72 72 73 73 73 73 72 72 72 72 72 72 72 72 72 71 71 71 71 66 66 66 66 38 37 39 39 39 39 41 41 66 66 66 71 71 71 71 70 70 70 69 69 69 68 68 68 68 68 68 68 68 68 68 68 68 68 68 68 68 68 68 68 68 68 68 68 68 68 68 68 67 67 67 67 67 67 67 67 67 67 67 67 67 67 67 67 67 67 67 67 67 67 67 68 68 68 69 69 69 69 70
87 86 86 86 85 85 85 84 84 84 84 84 84 84 84 83 83 83 83 82 82 81 81 80 79 78 77 76 75 74 73 71 69 67 66 66 65 65 65 66 66 67 68 69 69 70 70 71 71 72 72 72 72 72 72 72 72 72 72 72 72 72 72 72 72 72 72 72 71 71 71 71 71 70 70 70 70 70 70 70 70 70 70 69 68 68 67 66 65 65 64 64 64 64 64 65 65 66 66 67 68 70 71 71 71 72 72 72 72 72 72 73 73 73 73 74 74 74 75 75 75 75 73 -1 -1 -1 -1 -1 -1 76 76 76 76 76 76 75 75 75 75 75 75 74 74 74 74 73 73 73 73 73 73 73 73 72 72 72 73 73 73 73 72 72 72 72 72 72 72 72 72 71 71 71 71 71 66 66 66 39 39 39 39 39 39 41 41 44 66 66 66 71 71 71 71 70 70 70 69 69 68 68 68 68 68 68 68 68 68 68 68 68 68 68 68 68 68 68 68 68 68 68 68 68 68 68 68 67 67 67 67 67 67 67 67 67 67 67 67 67 67 67 67 67 67 67 67 67 67 67 68 68 68 69 69 69 70 70
87 87 86 86 85 85 85 84 84 84 83 83 83 83 83 83 82 82 82 81 81 80 80 79 78 77 76 74 73 72 71 69 68 67 66 66 65 65 65 66 67 68 69 69 70 70 71 71 72 72 73 73 73 73 73 73 73 73 73 72 72 72 72 72 72 72 72 72 72 71 71 71 71 71 71 70 70 70 70 70 70 70 70 70 69 68 67 66 66 65 64 64 64 64 64 65 65 66 67 68 69 70 72 72 72 72 72 72 72 72 72 73 73 73 73 74 74 74 75 75 75 75 75 76 -1 -1 -1 -1 76 76 76 -1 75 75 75 75 75 75 75 75 74 74 74 74 74 73 73 73 73 73 73 73 73 73 72 73 73 73 73 73 72 72 72 72 72 72 72 72 72 71 71 71 71 71 71 66 66 66 46 39 39 39 41 41 41 41 41 66 66 71 71 71 71 71 70 70 69 69 68 68 68 68 68 68 68 68 68 68 68 68 68 68 68 68 68 68 68 68 68 68 68 68 68 68 68 67 67 67 67 67 -1 -1 -1 -1 67 67 67 67 -1 -1 67 67 67 67 67 67 67 67 68 68 68 68 69 69 70 70
87 87 87 86 86 85 85 84 84 83 83 83 83 82 82 82 81 81 81 80 80 79 78 78 77 76 75 73 72 70 69 68 67 67 66 66 66 66 65 66 67 68 69 70 70 71 72 72 72 73 73 73 73 73 73 73 73 73 73 73 73 72 72 72 72 72 72 72 72 72 72 71 71 71 71 71 70 70 70 70 70 70 70 70 69 69 68 67 66 65 65 65 65 65 65 65 66 66 67 68 69 70 72 72 72 72 72 72 72 72 73 73 73 73 73 74 74 74 74 75 75 75 75 76 76 76 76 76 76 -1 -1 -1 75 75 75 75 75 75 75 74 74 74 74 74 73 73 73 73 73 73 73 73 73 73 73 73 73 72 -1 72 -1 -1 -1 -1 72 72 72 72 72 71 71 71 71 71 71 71 66 66 66 46 41 41 41 41 41 41 41 49 66 66 71 71 71 71 71 70 69 69 69 68 68 68 68 68 68 68 68 68 68 68 68 68 68 68 68 68 68 68 68 68 68 68 68 68 68 68 67 67 67 -1 -1 -1 -1 -1 -1 67 67 67 -1 -1 -1 67 67 67 67 67 67 67 67 68 68 68 69 69 70 70
87 87 87 86 86 85 85 84 84 83 83 82 82 82 82 81 81 80 79 79 78 78 77 76 76 75 74 72 70 69 68 67 67 66 66 66 66 66 66 67 68 69 70 70 71 72 72 73 73 73 74 74 74 74 74 74 74 74 73 73 73 72 72 72 72 72 72 72 72 72 72 72 71 71 71 71 71 70 70 70 71 71 71 70 70 69 68 67 66 65 65 65 65 65 65 65 66 67 67 68 70 71 72 72 72 72 72 72 72 73 73 73 73 73 73 74 74 74 74 75 75 75 75 75 76 76 76 76 75 -1 -1 -1 75 75 74 74 74 74 74 74 74 74 74 73 73 73 73 73 73 73 72 73 73 73 73 73 72 -1 -1 -1 -1 -1 -1 -1 -1 72 72 72 72 71 71 71 71 71 71 71 71 66 66 66 49 41 41 41 41 41 41 41 46 66 66 71 71 71 71 70 70 69 69 69 69 69 68 68 68 68 68 68 68 68 68 68 68 68 68 68 68 68 68 68 68 68 69 68 68 68 67 67 67 -1 -1 -1 -1 -1 -1 67 67 -1 -1 -1 -1 67 67 67 67 67 67 67 67 67 68 68 69 69 70 70
88 88 87 87 86 86 85 84 84 83 82 82 82 81 81 80 80 79 78 78 77 77 76 76 75 74 73 71 69 68 67 66 66 66 66 66 66 66 66 67 68 69 71 71 72 72 73 73 74 74 74 74 74 74 74 74 74 74 74 74 73 73 72 72 72 73 73 72 72 72 72 72 72 71 71 71 71 71 70 71 71 71 71 71 70 70 70 68 66 65 65 65 65 65 65 66 66 67 68 69 70 71 72 72 72 72 72 72 73 73 73 73 73 73 74 74 74 74 74 75 75 75 75 -1 -1 75 76 75 75 75 -1 75 73 74 74 74 74 74 74 74 74 74 74 73 73 73 73 73 73 72 72 73 73 73 73 73 72 -1 -1 -1 -1 -1 -1 -1 -1 72 72 72 72 71 71 71 71 71 71 71 71 71 66 66 66 66 41 41 41 41 41 44 44 66 66 71 71 71 71 70 70 69 69 69 69 69 69 68 68 68 68 68 68 68 68 68 68 68 68 68 68 68 68 68 68 69 69 68 68 68 67 67 67 67 67 -1 -1 -1 67 67 67 -1 -1 -1 -1 67 67 67 67 67 67 67 67 67 67 68 69 69 70 70
87 87 87 86 86 85 84 84 83 82 81 80 79 78 78 77 76 76 75 75 74 74 74 73 72 72 71 70 69 68 67 67 66 66 66 66 67 67 67 68 69 70 71 72 72 73 73 74 74 74 75 75 75 75 75 74 74 73 72 71 70 69 68 69 69 69 70 70 70 70 70 71 71 71 71 71 71 71 71 71 71 71 71 71 71 71 70 68 67 66 65 65 65 65 65 66 66 67 68 69 70 71 72 72 72 72 72 73 73 73 73 73 73 74 74 74 74 74 74 75 75 -1 -1 -1 -1 -1 75 75 75 75 75 74 74 74 74 74 74 74 74 74 73 73 73 73 73 73 72 72 72 72 72 73 73 73 73 73 -1 -1 -1 -1 -1 -1 -1 -1 -1 72 72 72 72 71 71 71 71 71 71 71 71 71 71 66 66 66 66 41 41 41 41 44 44 50 66 71 71 71 71 70 70 69 69 69 69 69 69 69 68 68 68 68 68 68 68 68 68 68 68 68 68 68 68 69 69 69 69 68 68 68 68 68 67 67 67 67 67 67 67 67 -1 -1 -1 -1 -1 67 68 68 67 67 67 67 67 67 67 68 69 69 70 70
87 87 87 86 85 85 84 83 82 81 81 79 77 76 75 74 74 73 73 72 72 72 71 71 71 70 70 69 68 67 67 67 67 67 66 67 67 68 68 69 70 71 72 72 73 73 74 74 74 75 75 75 75 75 75 74 73 71 70 69 68 67 66 67 67 67 68 68 68 69 69 69 70 70 70 71 71 71 71 71 71 72 72 72 71 71 71 69 67 66 65 65 65 65 65 66 66 67 68 69 70 71 72 72 72 73 73 73 73 73 73 73 73 74 74 74 74 74 75 75 75 -1 -1 -1 -1 -1 75 75 75 75 74 74 74 74 73 73 73 73 73 73 73 73 73 73 73 72 72 72 72 72 73 73 73 73 73 73 72 -1 -1 -1 -1 -1 -1 -1 72 72 72 72 72 71 71 71 71 71 71 71 71 71 71 71 71 66 66 51 44 44 44 44 44 44 66 66 71 71 71 71 70 70 69 69 69 69 69 69 69 68 68 68 68 68 68 68 68 69 69 69 69 69 69 69 69 69 69 68 68 68 68 68 68 67 67 67 67 67 67 67 -1 -1 -1 -1 -1 68 68 68 68 68 68 67 67 67 67 68 68 69 69 70
87 87 87 86 85 84 83 82 81 80 80 78 76 74 73 72 72 71 71 71 70 70 70 69 69 69 68 68 67 67 67 67 67 67 67 67 68 69 70 70 71 72 72 73 73 73 74 74 75 75 75 76 76 76 76 74 72 70 68 67 67 66 66 66 66 66 66 67 67 67 68 69 69 70 70 70 71 71 72 72 72 72 72 72 72 72 72 70 68 67 65 65 65 65 65 66 67 67 68 69 70 71 72 73 73 73 73 73 73 73 73 73 74 74 74 74 74 75 75 75 75 75 -1 -1 -1 75 75 75 75 74 74 74 74 73 73 73 73 73 73 73 73 73 73 73 72 72 72 72 72 72 73 73 73 73 73 73 -1 -1 -1 -1 -1 -1 -1 72 72 72 72 72 72 71 71 71 71 71 71 71 71 71 71 71 71 71 66 66 51 44 44 44 44 44 46 66 71 71 71 71 70 70 69 69 69 69 69 69 69 68 68 68 68 68 68 69 69 69 69 69 69 69 69 69 69 69 69 69 68 68 68 68 68 68 68 68 68 67 67 67 67 -1 -1 -1 -1 68 68 68 68 68 68 68 68 68 68 68 68 69 69 69
87 87 87 86 85 84 83 82 81 80 79 76 74 72 71 70 70 70 69 69 69 68 68 68 68 67 67 67 67 67 67 67 67 67 67 68 69 70 71 72 72 73 73 73 74 74 74 75 75 75 76 76 76 76 76 74 71 69 66 66 65 65 65 65 65 65 65 65 66 66 67 68 68 69 70 70 71 71 72 72 72 72 72 72 72 72 72 70 69 67 66 66 65 65 65 66 67 68 68 69 70 71 72 73 73 73 73 73 73 73 73 73 74 74 74 74 74 75 75 75 75 75 75 75 75 75 75 75 74 74 74 74 73 73 73 73 73 73 73 73 73 73 72 72 72 72 72 72 72 72 73 73 73 72 72 -1 -1 -1 -1 -1 -1 -1 -1 72 72 72 72 72 72 71 71 71 71 71 71 71 71 71 71 71 71 71 71 66 66 51 44 44 44 44 46 66 66 71 71 71 70 70 69 69 69 69 69 69 69 69 68 68 68 69 69 69 69 69 69 69 69 69 69 69 69 69 69 69 68 68 68 68 68 68 68 68 68 68 68 68 67 -1 -1 -1 67 68 68 68 68 68 68 68 68 68 68 68 68 68 69 69
86 86 86 85 84 83 82 80 79 77 76 74 73 71 70 70 69 69 69 69 68 68 68 68 68 67 67 67 67 67 68 68 68 68 68 69 70 71 72 72 73 73 74 74 74 75 75 75 76 76 76 76 75 74 73 71 69 67 66 65 65 65 65 65 65 65 65 65 65 66 66 67 67 68 69 69 69 69 70 70 71 72 73 73 73 73 73 71 70 68 67 67 67 67 67 67 68 68 69 69 70 71 72 72 72 72 72 72 72 73 73 73 74 74 74 74 74 75 75 75 75 75 75 75 75 75 75 74 74 74 73 73 73 73 73 72 72 72 72 72 72 72 72 72 72 72 72 72 72 72 73 73 72 72 72 -1 -1 -1 -1 -1 -1 -1 -1 72 72 72 72 72 72 72 71 71 71 71 71 71 71 71 71 71 71 71 71 71 66 66 46 44 44 46 46 50 66 71 71 71 70 70 69 69 69 69 69 69 69 69 69 69 69 69 69 69 69 69 69 69 69 69 69 69 69 69 69 69 68 68 68 68 68 68 68 68 68 68 68 68 68 67 -1 67 68 68 68 68 68 68 68 68 68 68 68 68 68 68 69 69
86 86 85 84 83 82 81 79 77 75 74 73 71 70 69 69 69 69 68 68 68 68 68 68 68 68 67 68 68 68 69 69 69 69 70 70 71 72 73 73 73 74 74 75 75 75 75 76 76 76 77 76 73 71 70 69 67 66 65 65 65 65 65 65 65 65 65 65 65 65 66 66 67 67 67 68 68 68 68 69 70 71 73 73 73 73 73 72 71 70 69 69 68 68 68 68 68 69 69 69 70 70 71 71 71 70 70 71 71 72 73 73 74 74 74 74 74 75 75 75 75 75 75 75 75 75 74 74 74 73 73 73 73 72 72 72 72 72 72 72 72 72 72 72 72 72 72 72 72 72 72 72 72 72 72 -1 -1 -1 -1 -1 -1 -1 -1 72 72 72 72 72 72 72 71 71 71 71 71 71 71 71 71 71 71 71 71 71 71 66 66 46 46 45 45 45 66 66 71 71 70 70 69 69 69 69 69 69 69 69 69 69 69 69 69 69 69 69 69 69 69 69 69 69 69 69 69 69 69 68 68 68 68 68 68 68 68 68 68 68 68 68 68 68 68 68 68 68 68 68 68 68 68 68 68 68 68 69 69 69
86 85 85 83 82 81 80 78 75 73 72 71 70 69 69 69 68 68 68 68 68 68 68 68 68 68 68 68 69 69 70 70 70 71 71 72 72 73 73 74 74 74 75 75 75 76 76 76 77 77 77 75 72 69 67 67 66 65 65 65 65 65 65 65 65 65 65 65 65 65 65 65 66 66 66 66 66 66 66 67 68 70 73 73 73 73 73 72 71 71 70 70 70 69 69 69 69 69 69 69 70 70 70 70 70 70 69 70 71 72 73 73 73 74 74 74 74 75 75 75 75 75 75 75 75 74 74 74 73 73 73 72 72 72 72 72 72 72 72 72 72 72 72 72 72 72 72 72 72 72 72 72 72 72 72 72 -1 -1 72 72 72 72 72 72 72 72 72 72 72 72 72 71 71 71 71 71 71 71 71 71 71 71 71 71 72 72 66 66 45 45 45 45 46 66 71 71 70 70 69 69 69 69 69 69 69 69 69 69 69 69 69 69 69 69 69 69 69 69 69 69 69 69 69 69 69 69 68 68 68 68 68 68 68 68 68 68 68 68 68 68 68 68 68 68 68 68 68 68 68 68 68 68 68 69 69 69
85 85 84 83 82 80 79 76 74 72 70 70 69 69 68 68 68 68 68 68 68 67 67 67 68 68 68 68 69 70 71 72 72 72 73 73 73 74 74 74 75 75 76 76 76 76 77 77 77 77 78 75 70 67 65 65 65 65 65 65 65 65 65 65 65 65 65 65 65 65 65 65 65 65 65 65 65 65 65 65 66 68 73 73 73 73 74 73 72 72 71 71 71 71 71 70 70 70 69 69 70 70 70 70 69 69 69 69 70 71 73 73 73 74 74 74 74 75 75 75 75 75 75 75 74 74 74 74 73 73 72 72 72 72 71 71 72 72 72 72 72 72 72 72 72 72 72 72 72 72 72 72 72 72 72 72 72 72 72 72 72 72 72 72 72 72 72 72 72 72 72 72 71 71 71 71 71 71 71 71 71 71 72 72 72 72 72 66 46 45 45 45 46 66 71 71 70 70 69 69 69 69 69 69 69 69 69 69 69 69 69 69 69 69 69 69 69 69 69 69 69 69 69 69 69 69 69 69 69 68 68 68 68 68 68 68 68 68 68 68 68 68 68 68 68 68 68 68 68 68 68 68 68 69 69 69
85 84 84 82 80 78 77 75 73 71 70 69 69 68 68 68 68 68 68 68 68 68 68 69 69 69 69 70 70 71 72 72 73 73 73 74 74 74 75 75 75 76 76 76 77 77 77 77 77 77 77 73 69 67 65 65 65 65 65 65 65 65 65 65 65 65 65 65 65 64 64 64 64 64 64 65 65 65 65 65 66 66 68 69 70 72 72 72 72 72 72 72 71 71 71 71 70 70 70 70 70 70 70 69 69 69 69 70 70 71 72 73 73 74 74 74 74 75 75 75 75 75 75 75 74 74 74 73 73 73 72 72 72 71 71 71 71 71 72 72 72 72 72 72 72 72 72 72 72 72 72 72 72 72 72 72 72 72 72 72 72 72 72 72 72 72 72 72 72 72 72 72 72 71 71 71 71 71 71 71 71 71 71 72 72 72 72 66 66 46 45 46 46 72 72 71 71 70 70 70 69 69 69 69 69 69 69 69 69 69 69 69 69 69 69 69 69 69 69 69 69 69 69 69 69 69 69 69 69 69 69 69 69 69 69 68 68 68 68 68 68 68 68 68 68 68 68 68 68 68 68 68 68 69 69 69
85 84 84 81 78 76 75 73 72 70 69 69 68 68 68 68 68 69 69 69 69 69 70 70 70 70 70 71 71 72 73 73 73 74 74 74 75 75 75 75 76 76 76 77 77 77 78 77 77 76 76 72 69 66 64 64 64 64 64 64 65 65 65 65 65 65 65 65 64 64 64 64 64 64 64 64 64 64 65 65 65 65 66 67 69 70 71 72 72 72 73 72 72 72 72 71 71 71 70 70 70 70 69 69 69 69 69 70 70 71 72 72 73 74 74 74 74 75 75 75 75 75 75 74 74 74 74 73 73 72 72 72 71 71 71 71 71 71 71 72 72 72 72 72 72 72 72 72 72 72 72 72 72 72 72 72 72 72 72 72 72 72 72 72 72 72 72 72 72 72 72 72 72 72 71 71 71 71 71 71 71 71 71 72 72 72 72 72 66 66 48 46 47 72 72 66 71 70 70 70 70 70 69 69 69 69 69 69 69 69 69 69 69 69 69 69 69 69 69 69 69 69 69 69 69 69 69 69 69 69 69 69 69 69 69 69 69 68 68 68 68 68 68 68 68 68 68 68 68 68 68 68 68 69 69 69
85 84 83 80 77 75 73 72 71 70 69 68 68 68 67 68 68 69 70 70 70 70 71 71 71 72 72 72 73 73 73 74 74 75 75 75 75 76 76 76 76 77 77 77 78 78 78 78 77 76 75 71 68 66 64 64 64 64 64 64 64 64 64 65 65 65 65 64 64 64 64 64 64 64 64 64 64 64 64 64 65 65 65 66 68 69 70 71 72 73 74 73 73 73 73 72 72 71 71 70 70 69 69 69 69 69 69 70 70 71 72 72 73 74 74 74 74 74 75 75 75 75 75 74 74 74 74 73 73 72 72 71 71 71 71 71 71 71 71 71 72 72 72 72 72 72 72 72 72 72 72 72 72 72 72 72 72 72 72 72 72 72 72 72 72 72 72 72 72 72 72 72 72 72 72 71 71 71 71 71 71 71 71 72 72 72 72 72 72 72 72 72 72 72 72 66 71 70 70 70 70 70 70 69 69 69 69 69 69 69 69 69 69 69 69 69 69 69 69 69 69 69 69 69 69 69 69 69 69 69 69 69 69 69 69 69 69 69 69 68 68 68 68 68 68 68 68 68 68 68 68 68 68 69 69 69
85 84 83 79 76 73 71 70 70 69 68 68 68 68 67 68 69 69 70 71 71 72 72 72 73 73 74 74 74 74 74 75 75 75 76 76 76 76 76 77 77 77 77 78 78 79 79 78 77 75 74 70 67 66 64 64 64 64 64 64 64 64 64 64 64 64 64 64 64 64 64 64 64 64 64 64 64 64 64 64 64 65 65 66 67 68 70 71 72 73 74 74 74 74 73 73 73 72 72 71 70 69 69 69 69 69 69 70 70 71 71 72 73 74 74 74 74 74 74 74 74 74 74 74 74 74 74 73 72 72 71 71 71 71 70 71 71 71 71 71 71 72 72 72 72 72 72 72 72 72 72 72 72 72 72 72 72 72 72 72 72 72 72 72 72 72 72 72 72 72 72 72 72 72 72 72 72 71 71 71 71 71 71 71 72 72 72 72 72 72 72 72 72 72 72 71 71 71 70 70 70 70 70 70 69 69 69 69 69 69 69 69 69 69 69 69 69 69 69 69 69 69 69 69 69 69 69 69 69 69 69 69 69 69 69 69 69 69 69 69 69 68 68 68 68 68 68 68 68 68 68 68 69 69 69 69
84 83 83 79 76 73 71 70 70 69 68 68 68 68 67 68 69 70 71 71 72 72 73 73 73 74 74 74 75 75 75 75 76 76 76 76 76 77 77 77 77 78 78 77 77 77 76 75 73 71 70 68 66 65 64 64 64 64 64 64 64 64 64 64 64 64 64 64 64 64 64 64 64 64 64 64 64 64 64 64 64 64 65 66 67 68 70 71 72 73 74 74 74 74 74 73 72 71 71 70 69 69 68 68 69 69 69 70 70 71 72 72 73 74 74 74 74 74 75 75 75 75 74 74 74 74 74 73 73 72 72 71 71 71 71 71 71 71 71 71 71 72 72 72 72 72 72 72 72 72 72 72 72 72 72 72 72 72 72 72 72 72 72 72 72 72 72 72 72 72 72 72 72 72 72 72 72 71 71 71 71 71 71 72 72 72 72 72 72 72 72 72 72 72 72 71 71 71 70 70 70 70 70 70 70 69 69 69 69 69 69 69 69 69 70 69 69 69 69 69 69 69 69 69 69 68 68 68 68 69 68 69 69 69 69 69 69 69 69 69 69 68 68 68 68 68 68 68 68 68 68 68 69 69 69 69
84 83 83 79 75 73 71 70 69 69 68 68 68 68 68 68 69 70 71 72 72 73 73 74 74 75 75 75 75 75 76 76 76 76 77 77 77 77 77 77 78 78 78 77 76 75 74 72 71 69 67 66 65 65 64 64 64 64 64 64 64 64 64 64 64 64 64 64 64 64 64 64 64 64 64 64 64 64 64 64 64 64 65 66 67 68 70 71 72 73 74 74 74 74 74 73 72 70 69 69 68 68 68 68 68 69 69 70 70 71 72 72 73 74 74 74 74 75 75 75 75 75 75 74 74 74 74 73 73 72 72 71 71 71 71 71 71 71 71 71 71 72 72 72 72 72 72 72 72 72 72 72 72 72 72 72 72 72 72 72 72 72 72 72 72 72 72 72 72 72 72 72 72 72 72 72 72 72 71 72 72 72 72 72 72 72 72 72 72 72 72 72 72 72 72 71 71 71 70 70 70 70 70 70 70 70 70 70 70 70 70 70 70 70 70 70 70 70 70 70 70 70 70 70 -1 -1 -1 -1 -1 -1 -1 68 69 69 69 69 69 69 69 69 69 69 68 68 68 68 68 68 68 68 68 68 69 69 69 69
83 83 82 79 75 73 71 70 69 69 68 68 68 68 68 69 70 71 72 72 73 73 74 74 75 75 76 76 76 76 76 76 77 77 77 77 77 77 77 78 78 78 78 77 75 73 72 70 69 67 65 65 64 64 64 64 64 64 64 64 64 64 64 64 64 64 64 64 64 64 64 64 64 63 63 -1 64 64 64 64 64 64 64 66 67 68 70 71 72 73 75 74 74 74 74 73 71 70 68 68 67 67 67 67 68 68 69 70 71 71 72 72 73 74 74 74 75 75 75 75 75 75 75 74 74 74 74 73 73 72 72 71 71 71 71 71 71 71 71 71 71 72 72 72 72 72 72 72 72 72 72 72 72 72 72 72 72 72 72 72 72 72 72 72 72 72 72 72 72 72 72 72 72 72 71 72 72 72 72 72 72 72 72 72 72 72 72 72 72 72 72 72 72 72 72 71 71 71 70 70 70 70 70 70 70 70 70 70 70 70 70 70 70 70 70 70 70 70 70 70 70 70 70 -1 -1 -1 -1 -1 -1 -1 -1 -1 69 69 69 69 69 69 69 69 69 69 69 68 68 68 68 68 68 68 68 68 69 69 69 69
83 83 82 79 75 73 71 70 69 69 68 68 68 68 68 69 70 71 72 73 73 74 75 75 76 76 77 77 77 77 77 77 77 77 77 77 78 78 78 78 78 78 79 76 73 72 71 69 68 66 64 64 64 64 64 64 64 64 64 64 64 64 64 64 64 64 64 64 64 64 64 -1 -1 63 63 -1 63 63 64 64 64 64 64 66 67 68 70 71 72 73 75 74 74 74 74 72 71 69 67 67 67 66 66 67 67 68 69 70 71 71 72 72 73 74 74 74 75 75 75 75 75 75 75 74 74 74 74 73 73 72 72 71 71 71 71 71 70 70 70 71 71 72 72 72 72 72 72 72 72 72 72 72 72 72 72 72 72 72 72 72 72 72 72 72 72 72 72 72 72 72 72 72 72 72 71 71 72 72 72 72 72 72 72 72 72 72 72 72 72 72 72 72 72 72 72 71 71 71 70 70 70 70 70 70 70 70 70 70 70 70 70 70 70 70 70 70 70 70 70 70 70 70 70 -1 -1 -1 -1 -1 -1 -1 -1 -1 69 69 69 69 69 69 69 69 69 69 69 68 68 68 68 68 68 68 68 68 69 69 69 69
83 83 82 80 76 74 72 71 70 69 69 68 68 68 68 69 70 71 72 73 74 75 75 76 76 77 77 77 77 77 77 77 77 77 77 77 77 78 78 78 78 78 79 76 73 71 70 69 67 66 64 64 64 64 64 64 64 64 64 64 64 64 64 64 64 64 64 64 64 64 63 63 63 63 63 -1 63 63 -1 64 64 64 64 65 66 68 69 69 71 72 74 74 73 73 72 71 69 68 66 66 66 66 66 67 67 67 68 69 71 72 73 73 74 74 75 75 75 75 75 75 75 75 75 74 74 74 73 73 73 72 72 71 71 71 71 71 71 70 70 71 71 72 72 72 72 72 72 72 72 72 72 72 72 72 72 72 72 72 72 72 72 72 72 72 72 72 72 72 72 72 72 72 72 72 72 72 72 72 72 72 72 72 72 72 72 72 72 72 72 72 72 72 72 72 72 71 71 71 71 70 70 70 70 70 70 70 70 70 70 70 70 70 70 70 70 70 70 70 70 70 70 70 70 -1 -1 -1 -1 -1 -1 -1 -1 -1 69 69 69 69 69 69 69 69 69 69 69 69 68 68 68 68 68 68 68 69 69 69 69 69
83 83 82 80 78 75 73 72 71 70 69 69 68 68 68 69 70 72 73 74 74 75 76 76 76 77 77 77 77 77 77 77 77 77 77 77 77 77 78 78 78 78 79 75 72 71 69 68 67 65 64 64 64 64 63 -1 -1 63 64 64 64 64 64 64 64 64 64 64 63 63 63 63 63 63 63 63 63 -1 -1 64 64 64 64 65 66 67 67 68 69 71 74 73 72 71 70 69 68 67 66 66 66 66 66 66 67 67 67 69 70 72 73 74 74 75 75 75 75 75 75 75 75 75 75 74 74 74 73 73 73 72 72 72 71 71 71 71 71 71 70 71 71 72 72 72 72 72 73 73 73 73 73 73 72 72 72 72 72 72 72 72 72 72 72 72 72 72 72 72 72 72 72 72 72 72 72 72 72 72 72 72 72 72 72 72 72 72 72 72 72 72 72 72 72 72 71 71 71 71 71 70 70 70 70 70 70 70 70 70 70 70 70 70 70 70 70 70 70 70 70 70 70 70 -1 -1 -1 -1 -1 -1 -1 -1 68 69 69 69 69 69 69 69 69 69 69 69 69 69 69 69 68 69 69 69 69 69 69 69 69 69
83 83 82 81 79 77 75 73 72 70 69 69 69 69 68 69 71 72 73 74 75 75 76 76 77 77 78 78 78 77 77 77 77 77 77 77 77 77 77 78 78 78 79 75 72 70 69 67 66 65 64 -1 -1 63 63 63 63 63 -1 -1 63 64 64 64 64 64 64 -1 63 63 63 63 63 63 63 63 -1 -1 -1 64 64 64 64 65 65 65 66 67 68 70 73 72 70 69 68 67 66 66 65 66 66 66 66 66 66 67 67 69 70 72 74 75 75 75 75 75 75 75 75 75 75 75 75 74 74 74 73 73 73 72 72 72 71 71 71 71 71 71 71 71 71 72 72 72 72 72 73 73 73 73 73 73 72 72 72 72 72 72 72 72 72 72 72 72 72 72 72 72 72 72 72 72 72 72 72 72 72 72 72 72 72 72 72 72 72 72 72 72 72 72 72 72 72 71 71 71 71 71 71 71 70 70 70 70 70 70 70 70 70 70 70 70 70 70 70 70 70 70 70 70 70 70 -1 -1 -1 -1 -1 -1 -1 68 70 69 69 69 69 69 69 69 69 69 69 69 69 69 69 69 69 69 69 69 69 69 69 69 69 69
83 82 82 81 80 79 78 75 73 71 69 69 69 69 69 70 71 72 74 74 75 76 77 77 77 78 78 78 78 78 78 78 77 77 77 77 77 77 77 78 78 78 79 74 71 69 68 67 66 64 -1 -1 -1 63 63 63 63 63 63 -1 -1 -1 -1 -1 63 63 -1 -1 63 63 63 63 -1 -1 -1 -1 -1 -1 63 -1 64 64 64 64 64 64 65 65 67 68 72 70 68 67 65 65 65 65 65 65 66 66 66 66 66 66 67 68 70 72 75 75 75 75 76 75 75 75 75 75 75 75 75 74 74 73 73 73 72 72 72 72 71 71 71 71 71 71 71 71 72 72 72 72 72 73 73 73 73 73 73 73 73 72 72 72 72 72 72 72 72 72 72 72 72 72 72 72 72 72 72 72 72 72 72 72 72 72 72 72 72 72 72 72 72 72 72 72 72 72 72 72 71 71 71 71 71 71 71 71 70 70 70 70 70 70 70 70 70 70 70 70 70 70 70 70 70 70 70 70 70 70 -1 -1 -1 -1 -1 -1 -1 68 70 70 69 69 69 69 69 69 69 69 69 69 69 69 69 69 69 69 69 69 69 69 69 69 69 69
82 81 81 80 79 78 77 74 72 71 69 69 69 69 69 70 71 72 74 74 75 76 77 77 77 77 78 78 78 78 78 77 77 77 77 77 77 77 77 78 78 78 78 74 71 69 67 66 65 64 -1 63 63 63 63 63 63 63 63 -1 -1 -1 -1 -1 -1 -1 -1 63 63 -1 -1 -1 63 63 -1 -1 63 63 63 -1 64 64 64 64 64 64 64 65 66 67 68 67 66 66 65 65 65 65 65 65 65 66 66 66 66 67 67 68 70 73 75 75 75 76 76 76 75 75 75 75 75 75 75 74 74 74 73 73 73 72 72 72 72 71 71 71 71 71 71 71 72 72 72 72 73 73 73 73 73 73 73 73 73 72 72 72 72 72 72 72 72 72 72 72 72 72 72 72 72 72 72 72 72 72 72 72 72 72 72 72 72 72 72 72 72 72 72 72 72 72 72 72 71 71 71 71 71 71 71 71 71 70 70 70 70 70 70 70 70 70 70 70 70 70 70 70 70 70 70 70 70 70 -1 -1 -1 -1 -1 -1 68 69 68 69 70 69 69 69 69 69 69 69 69 69 69 69 69 69 69 69 69 69 69 69 69 69 69 69
80 79 79 78 77 77 76 74 72 71 69 69 69 69 69 70 71 72 74 74 75 76 76 77 77 77 78 78 78 78 77 77 77 77 77 77 77 77 77 77 78 78 78 74 70 68 66 65 65 64 -1 -1 63 -1 -1 -1 -1 -1 63 63 -1 -1 -1 63 63 63 63 63 63 -1 -1 -1 63 63 -1 -1 63 63 63 -1 64 64 64 64 64 64 64 65 65 66 66 66 66 65 65 65 65 65 65 65 65 65 66 66 66 67 67 69 70 73 75 75 76 76 76 76 76 76 75 75 75 75 75 74 74 74 73 73 73 73 72 72 72 72 72 71 71 71 71 71 72 72 72 73 73 73 73 73 73 73 73 73 73 73 72 72 72 72 72 72 72 72 72 72 72 72 72 72 72 72 72 72 72 72 72 72 72 72 72 72 72 72 72 72 72 72 72 72 72 72 72 72 71 71 71 71 71 71 71 71 71 70 70 70 70 70 70 70 70 70 70 70 70 70 70 70 70 70 70 70 70 70 68 -1 -1 -1 -1 -1 69 -1 -1 -1 -1 70 70 69 69 69 69 69 69 69 69 69 69 69 69 69 69 69 69 69 69 69 69 69
77 77 76 76 76 76 76 74 72 71 69 69 69 69 69 70 71 72 73 74 75 76 76 77 77 77 78 78 78 77 77 77 77 77 77 77 77 77 77 77 77 78 78 74 70 67 65 65 64 64 63 -1 -1 -1 63 -1 -1 -1 63 63 63 63 63 63 63 63 63 63 63 63 -1 -1 -1 -1 63 63 -1 -1 -1 63 64 64 64 64 64 64 64 64 65 65 65 65 65 65 65 65 65 65 65 65 65 65 66 66 66 67 67 69 71 73 75 76 76 76 76 76 76 76 76 75 75 75 75 74 74 74 73 73 73 73 72 72 72 72 72 72 72 71 71 72 72 72 73 73 73 73 73 73 73 73 73 73 73 73 73 73 72 72 72 72 72 72 72 72 72 72 72 72 72 72 72 72 72 72 72 72 72 72 72 72 72 72 72 72 72 72 72 72 72 72 72 72 71 71 71 71 71 71 71 71 71 70 70 70 70 70 70 70 70 70 70 70 70 70 71 71 71 71 71 71 71 71 71 71 71 71 -1 69 -1 -1 -1 -1 -1 69 70 70 69 69 69 69 69 69 69 69 69 69 69 69 69 69 69 69 69 69 69 69
75 75 74 75 75 75 75 74 72 71 70 69 69 69 69 70 71 72 73 74 75 75 76 77 77 77 78 78 78 77 77 77 77 77 77 77 77 77 77 77 77 77 77 73 70 67 64 64 64 64 63 63 -1 63 63 -1 63 63 -1 -1 63 -1 -1 63 63 -1 63 -1 -1 -1 63 63 -1 -1 -1 63 63 -1 63 63 -1 64 64 64 64 64 64 64 64 64 64 64 64 64 64 65 65 65 65 65 65 65 65 66 66 67 67 69 71 73 76 76 76 76 76 76 76 76 76 75 75 75 75 74 74 74 74 73 73 73 73 72 72 72 72 72 72 72 72 72 72 72 73 73 73 73 73 73 73 73 73 73 73 73 73 73 73 73 73 72 72 72 72 72 72 72 72 72 72 72 72 72 72 72 72 72 72 72 72 72 72 72 72 72 72 72 72 72 72 72 72 72 71 71 71 71 71 71 71 71 71 70 70 70 70 70 70 70 70 70 70 70 70 71 71 71 71 71 71 71 71 71 71 71 71 71 71 70 69 -1 -1 -1 -1 69 70 70 70 69 69 69 69 69 69 69 69 69 69 69 69 69 69 69 69 69 69 69
75 74 74 74 74 74 74 73 71 70 69 69 69 69 69 70 71 72 73 74 74 75 76 76 77 77 77 77 77 77 77 77 77 77 77 77 77 77 77 76 75 75 74 71 68 66 64 64 64 64 63 63 -1 -1 -1 -1 -1 63 -1 -1 63 63 -1 63 63 -1 63 63 63 -1 63 63 -1 -1 -1 63 63 -1 -1 -1 64 64 64 64 64 64 64 64 64 64 65 65 64 64 64 64 64 64 65 65 65 65 65 66 66 67 67 69 70 73 75 75 76 76 76 76 76 76 76 76 75 75 75 75 74 74 74 74 73 73 73 73 73 73 73 72 72 72 71 72 72 72 72 72 72 72 72 72 72 72 73 73 73 73 73 73 73 73 73 73 72 72 72 72 72 72 72 72 72 72 72 72 72 72 72 72 72 72 72 72 72 72 72 72 72 72 72 72 72 72 72 72 72 71 71 71 71 71 71 71 71 70 70 70 70 70 70 70 70 70 70 70 71 71 71 71 71 71 71 71 71 71 71 71 71 71 71 71 70 69 -1 68 69 70 70 70 70 69 69 69 69 69 69 69 69 69 69 69 69 69 69 69 69 69 69 69
74 74 74 74 73 73 73 71 71 70 69 69 69 69 69 69 70 71 73 73 74 75 75 76 76 77 77 77 77 77 77 77 77 77 77 77 77 77 77 75 74 73 72 69 67 65 64 64 64 -1 63 63 -1 63 63 -1 -1 -1 -1 -1 63 63 -1 -1 63 63 -1 63 63 -1 -1 63 -1 -1 -1 63 63 -1 -1 -1 64 64 64 64 64 64 64 64 64 65 65 65 65 64 64 64 64 64 64 65 65 65 65 66 66 67 67 69 70 72 74 75 75 76 76 76 76 76 76 76 76 75 75 75 75 75 74 74 74 73 73 73 73 73 73 73 72 72 71 71 71 71 71 71 72 72 72 72 72 72 72 72 73 73 73 73 73 73 73 73 73 73 72 72 72 72 72 72 72 72 72 72 72 72 72 72 72 72 72 72 72 72 72 72 72 72 72 72 72 72 72 72 72 71 71 71 71 71 71 71 71 71 70 70 70 70 70 70 70 70 70 71 71 71 71 71 71 71 71 71 71 71 71 71 71 71 71 71 71 70 70 70 70 70 70 70 70 70 69 69 69 69 69 69 69 69 69 69 69 69 69 69 69 69 69 69
74 74 74 73 72 72 71 70 70 69 69 69 69 69 69 69 70 71 72 73 74 74 75 75 76 76 77 77 77 77 77 77 77 77 77 77 77 77 76 74 72 71 69 68 66 65 64 64 64 63 63 63 63 63 63 63 63 63 -1 -1 63 -1 -1 -1 63 63 -1 63 -1 -1 -1 -1 -1 63 63 63 63 63 -1 63 64 64 64 64 64 64 64 65 65 65 65 65 65 64 64 64 64 64 64 65 65 65 65 66 66 67 67 68 70 71 74 74 75 76 76 76 76 76 76 76 76 76 75 75 75 75 75 74 74 74 73 73 74 74 74 73 72 72 71 71 71 71 71 71 71 71 71 71 72 72 72 72 72 73 73 73 73 73 73 73 73 73 73 72 72 72 72 72 72 72 72 72 72 72 72 72 72 72 72 72 72 72 72 72 72 72 72 72 72 72 72 72 72 72 71 71 71 71 71 71 71 71 70 70 70 70 71 71 71 71 71 71 71 71 71 71 71 71 71 71 71 71 71 71 71 71 71 71 71 70 70 70 70 70 70 70 70 70 69 69 69 69 69 69 69 69 69 69 69 69 69 69 69 69 69 69
74 74 74 72 71 70 69 69 69 69 69 69 69 69 68 69 70 71 72 73 73 74 75 75 76 76 76 77 77 77 77 77 77 77 77 77 77 76 76 73 71 69 67 66 65 64 64 64 -1 63 63 63 -1 -1 -1 -1 63 63 63 63 63 -1 -1 -1 -1 -1 -1 -1 -1 -1 -1 -1 -1 -1 -1 -1 63 63 63 63 64 64 64 64 64 64 65 65 65 65 65 65 65 64 64 64 64 64 64 64 65 65 65 66 66 67 68 68 69 71 73 74 75 76 76 76 76 76 76 76 76 76 76 75 75 75 75 75 74 74 74 74 74 74 74 73 73 72 71 71 71 71 71 71 71 71 71 71 71 72 72 72 72 73 74 73 73 73 73 73 73 73 73 72 72 72 72 72 72 72 72 72 72 72 72 72 72 72 72 72 72 72 72 72 72 72 72 72 72 72 72 72 72 72 72 71 71 71 71 71 71 71 70 70 71 71 71 71 71 71 71 71 71 71 71 71 71 71 71 71 71 71 71 71 71 71 71 71 71 71 70 70 70 70 70 70 70 70 70 69 69 69 69 69 69 69 69 69 69 69 69 69 69 69 69 69
73 73 73 72 70 69 68 68 68 68 68 68 68 68 68 68 69 70 71 72 72 73 74 74 74 74 74 75 75 76 77 77 77 77 77 76 76 75 74 71 69 68 66 65 65 64 64 64 -1 63 -1 -1 -1 -1 -1 -1 -1 -1 -1 -1 -1 -1 -1 -1 -1 -1 -1 -1 -1 -1 -1 -1 -1 -1 -1 -1 63 63 -1 63 64 64 64 64 64 65 65 65 65 65 65 65 65 65 64 64 64 64 64 64 65 65 65 66 66 67 68 68 69 70 71 73 74 75 76 76 76 76 76 76 76 76 76 76 76 75 75 75 75 74 74 74 74 74 75 74 73 72 72 71 71 71 71 71 71 71 71 71 71 71 72 72 72 72 73 73 73 73 73 73 73 73 73 73 72 72 72 72 72 72 72 72 72 72 72 72 72 72 72 72 72 72 72 72 72 72 72 72 72 72 72 72 72 72 72 71 71 71 71 71 71 71 70 71 71 71 71 71 71 71 71 71 71 71 71 71 71 71 71 71 71 71 71 71 71 71 71 71 71 71 71 70 70 70 70 70 70 70 70 69 69 69 69 69 69 69 69 69 69 69 69 69 69 69 69 69
73 73 72 71 70 69 68 67 67 67 67 67 67 67 67 68 68 69 70 71 72 73 74 73 73 73 73 73 74 75 77 77 77 77 77 76 75 74 72 70 68 66 65 64 64 64 63 63 63 -1 -1 -1 63 -1 -1 63 63 63 -1 -1 -1 -1 -1 -1 -1 -1 -1 -1 -1 -1 -1 -1 -1 -1 -1 -1 63 63 -1 -1 64 64 64 64 64 65 65 65 65 65 65 65 65 65 65 64 64 64 64 64 65 65 65 66 67 67 68 68 69 70 70 72 74 75 76 76 76 76 76 76 76 76 76 76 76 76 75 75 75 75 74 74 75 75 75 74 73 73 72 72 71 71 71 71 71 71 71 71 71 71 71 72 72 72 73 73 73 73 73 73 73 73 73 73 73 72 72 72 72 72 72 72 72 72 72 72 72 72 72 72 72 72 72 72 72 72 72 72 72 72 72 72 72 72 72 72 71 71 71 71 71 71 70 71 71 71 71 71 71 71 71 71 71 71 71 71 71 71 71 71 71 71 71 71 71 71 71 71 71 71 71 70 70 70 70 70 70 70 70 70 69 69 69 69 69 69 69 69 69 69 69 69 69 69 69 69
72 72 72 70 69 68 67 66 66 65 65 65 65 65 65 66 67 68 69 70 71 72 73 73 72 72 72 72 73 75 76 76 77 77 77 76 74 72 69 66 65 64 64 64 64 64 63 63 -1 -1 -1 -1 63 -1 -1 63 63 63 63 -1 -1 -1 -1 -1 -1 -1 -1 -1 -1 -1 -1 -1 -1 -1 -1 -1 -1 63 63 -1 64 64 64 64 64 65 65 65 65 65 66 65 65 65 65 65 64 64 64 64 65 65 65 66 67 67 68 68 69 69 70 71 73 75 76 76 76 76 76 76 76 76 76 76 76 76 76 75 75 75 75 75 75 75 75 74 74 73 73 72 71 71 71 71 71 71 71 71 71 71 71 71 72 72 73 73 73 73 74 73 73 73 73 73 73 72 72 72 72 72 72 72 72 72 72 72 72 72 72 72 72 72 72 72 72 72 72 72 72 72 72 72 72 72 72 72 71 71 71 71 71 71 70 71 71 71 71 71 71 71 71 71 71 71 71 71 71 71 71 71 71 71 71 71 71 71 71 71 71 71 71 70 70 70 70 70 70 70 70 70 69 69 69 69 69 69 69 69 69 69 69 69 69 69 69 69
72 71 71 69 68 67 66 65 64 64 64 64 64 64 64 65 66 67 68 69 70 72 73 72 72 71 71 72 73 74 76 76 76 77 77 75 73 69 64 64 64 64 64 -1 63 63 63 -1 -1 63 -1 -1 -1 -1 -1 63 63 -1 -1 -1 -1 -1 -1 -1 -1 -1 -1 -1 -1 -1 -1 -1 -1 -1 -1 -1 63 63 63 -1 64 64 64 64 64 65 65 65 65 65 66 66 65 65 65 65 65 64 64 64 65 65 65 66 67 67 68 68 69 69 69 71 72 74 76 76 76 76 76 76 76 76 76 76 76 76 76 76 75 75 75 75 75 75 75 75 74 74 73 72 72 71 71 71 71 71 71 71 71 71 71 71 72 72 72 73 73 73 74 74 74 73 73 73 73 73 72 72 72 72 72 72 72 72 72 72 72 72 72 72 72 72 72 72 72 72 72 72 72 72 72 72 72 72 71 72 72 72 72 71 71 71 70 71 71 71 71 71 71 71 71 71 71 71 71 71 71 71 71 71 71 71 71 71 71 71 71 71 71 71 71 70 70 70 70 70 70 70 70 70 70 70 69 69 69 69 69 69 69 69 69 69 69 69 69 69
71 70 70 69 68 67 66 65 64 64 64 64 63 -1 63 63 64 65 65 66 67 68 69 69 69 69 70 71 72 73 76 76 76 76 77 75 73 70 65 64 64 64 -1 -1 63 63 63 -1 63 63 -1 -1 -1 -1 -1 -1 -1 -1 -1 -1 -1 -1 -1 -1 -1 -1 -1 -1 -1 -1 -1 -1 -1 -1 -1 63 63 63 63 64 64 64 64 64 65 65 65 65 65 66 66 66 65 65 65 65 65 65 64 65 65 65 66 66 67 67 68 68 69 69 69 71 72 74 76 76 76 76 77 77 76 76 76 76 76 76 76 76 75 75 75 75 75 75 75 75 74 74 73 72 72 71 71 71 71 71 71 71 71 71 71 71 71 72 72 72 72 73 73 73 73 73 73 73 73 73 73 72 72 72 72 72 72 72 72 72 72 72 72 72 72 72 72 72 72 72 72 72 72 72 72 72 72 72 72 72 72 72 72 71 71 71 70 71 71 71 71 71 71 71 71 71 71 71 71 71 71 71 71 71 71 71 71 71 71 71 71 71 71 71 71 70 70 70 70 70 70 70 70 70 70 69 69 69 69 69 69 69 69 69 69 69 69 69 69 69
70 69 69 68 67 66 65 65 64 64 64 -1 63 -1 -1 -1 -1 63 63 64 64 64 65 66 67 68 68 70 71 73 76 76 76 76 77 75 73 70 67 65 64 64 -1 -1 63 63 63 63 63 63 -1 63 -1 -1 -1 -1 -1 -1 -1 -1 -1 62 -1 -1 -1 -1 -1 -1 -1 -1 -1 -1 -1 -1 -1 -1 -1 63 64 64 64 64 64 64 65 65 65 65 65 66 66 66 66 65 65 65 65 65 65 65 65 66 66 67 67 68 68 68 69 69 70 71 72 74 75 76 76 76 77 77 77 76 76 76 76 76 76 76 76 75 75 75 75 75 75 75 74 74 74 73 72 71 71 71 71 71 71 71 71 71 71 71 71 71 71 72 72 72 72 73 73 73 73 73 73 73 73 73 72 72 72 72 72 72 72 72 72 72 72 72 72 72 72 72 72 72 72 72 72 72 72 72 72 72 72 72 72 72 71 71 71 71 71 71 71 71 71 71 71 71 71 71 71 71 71 71 71 71 71 71 71 71 71 71 71 71 71 71 71 71 71 70 70 70 70 70 70 70 70 70 69 69 69 69 69 69 69 69 69 69 69 69 69 69 69 69
69 68 68 67 67 66 65 64 64 64 64 -1 -1 -1 -1 -1 -1 -1 -1 -1 -1 -1 -1 64 65 66 67 69 70 72 76 76 76 76 76 75 73 71 68 67 65 64 63 63 -1 -1 63 63 63 -1 -1 -1 -1 -1 -1 -1 -1 -1 -1 -1 -1 -1 -1 -1 -1 -1 -1 -1 -1 -1 -1 -1 -1 -1 -1 -1 -1 63 64 64 64 64 64 64 65 65 65 65 65 66 66 66 66 66 65 65 65 65 65 66 66 66 66 67 67 68 68 69 69 69 70 71 72 73 75 75 76 76 77 77 77 76 76 76 76 76 76 76 76 75 75 75 75 75 75 75 75 74 74 73 72 71 71 71 71 71 71 71 71 71 71 71 71 71 71 71 72 72 72 72 72 73 73 73 73 73 73 73 73 72 72 72 72 72 72 72 72 72 72 72 72 72 72 72 72 72 72 72 72 72 72 72 72 72 72 72 72 71 71 71 71 71 71 71 71 71 71 71 71 71 71 71 71 71 71 71 71 71 71 71 71 71 71 71 71 71 71 71 71 71 71 71 70 70 70 70 70 70 70 70 69 69 69 69 69 69 69 69 69 69 69 69 69 69 69 70
68 67 67 67 66 65 65 64 64 64 64 -1 -1 -1 -1 -1 -1 -1 -1 -1 -1 -1 -1 -1 63 65 66 68 69 72 76 76 76 76 76 74 72 71 69 67 66 64 63 62 -1 -1 63 63 -1 -1 -1 -1 -1 -1 -1 -1 -1 -1 -1 -1 -1 -1 -1 -1 -1 -1 -1 -1 -1 -1 -1 -1 -1 -1 -1 -1 -1 64 64 64 64 64 64 64 65 65 65 65 66 66 66 66 66 66 66 66 66 66 66 66 66 66 67 67 67 68 68 69 69 69 70 71 72 73 74 75 76 76 77 77 77 77 76 76 76 76 76 76 76 76 75 75 75 75 75 75 75 75 74 73 72 71 71 71 71 71 71 71 71 71 71 71 71 71 71 71 71 71 72 72 72 73 73 73 73 73 73 73 73 73 72 72 72 72 72 72 72 72 72 72 72 72 72 72 72 72 72 72 72 72 72 72 72 72 72 72 72 71 71 71 71 71 71 71 71 71 71 71 71 71 71 71 71 71 71 71 71 71 71 71 71 71 71 71 71 71 71 71 71 71 71 71 70 70 70 70 70 70 70 70 69 69 69 69 69 69 69 69 69 69 69 69 69 69 69 70
67 67 67 66 66 65 65 64 64 64 64 -1 -1 -1 -1 -1 -1 -1 -1 -1 -1 -1 -1 -1 63 64 65 67 68 71 75 75 75 76 76 74 72 71 69 68 66 64 -1 -1 -1 -1 -1 -1 -1 -1 -1 -1 -1 -1 -1 -1 -1 -1 -1 -1 -1 -1 -1 -1 -1 -1 -1 -1 -1 -1 -1 -1 -1 63 63 63 64 64 64 64 64 64 64 64 65 65 65 65 65 66 66 66 66 66 66 66 66 66 66 66 66 67 67 67 67 68 68 69 69 69 70 70 71 72 73 74 74 75 75 75 75 75 75 76 76 76 76 76 76 75 75 75 75 75 75 75 74 74 73 72 72 71 71 71 71 71 71 71 71 71 71 71 71 71 71 71 71 71 71 72 72 72 72 72 72 72 72 72 73 73 73 73 72 72 72 72 72 72 72 72 72 72 72 72 72 72 72 72 72 72 72 72 72 72 72 72 72 71 71 71 71 71 71 71 71 71 71 71 71 71 71 71 71 71 71 71 71 71 71 71 71 71 71 71 71 71 71 71 71 71 71 71 70 70 70 70 70 70 70 69 69 69 69 69 69 69 69 69 69 69 69 69 69 69 69 70
67 67 66 66 66 65 65 64 64 64 -1 -1 -1 -1 -1 -1 -1 -1 -1 -1 -1 -1 -1 -1 -1 63 64 65 67 70 74 74 75 75 76 74 72 71 70 68 67 65 64 -1 63 -1 -1 -1 -1 -1 -1 -1 -1 -1 -1 -1 -1 -1 -1 -1 -1 -1 -1 -1 -1 -1 -1 -1 -1 -1 -1 -1 -1 63 63 63 64 64 64 64 64 64 64 64 65 65 65 65 65 65 66 66 66 66 65 66 66 66 66 66 66 67 67 67 67 68 68 68 69 69 70 70 71 71 72 72 73 73 74 74 74 74 74 75 75 75 76 76 75 75 75 75 75 75 75 74 74 73 72 72 71 71 71 71 71 71 71 71 71 71 71 71 71 71 71 71 71 71 71 71 71 72 72 72 72 72 72 72 72 73 73 73 73 73 72 72 72 72 72 72 72 72 72 72 72 72 72 72 72 72 72 72 72 72 72 72 72 71 71 71 71 71 70 71 71 71 71 71 71 71 71 71 71 71 71 71 71 71 71 71 71 71 71 71 71 71 71 71 71 71 71 71 70 70 70 70 70 70 70 69 69 69 69 69 69 69 69 69 69 69 69 69 69 69 69 70
